ply
format ascii 1.0
element vertex 572
property float x
property float y
property float z
end_header
3.017906 -1.139429 4.107926 
-1.296613 -4.631869 -8.170581 
3.491593 0.122254 0.521715 
-4.495705 5.022747 -0.933742 
1.781769 -3.136056 0.065412 
1.095548 -3.547298 0.220308 
1.256950 -4.211352 -0.770763 
-0.994517 -4.716865 0.427180 
5.837168 -0.897138 0.195548 
2.063099 -5.686080 -0.788687 
-2.858800 -0.264903 -6.906658 
1.255233 -1.389265 -5.913307 
-1.229878 -0.847014 -12.865186 
-4.495705 5.022747 -0.933742 
1.095548 -3.547298 0.220308 
1.338280 -3.133816 0.199982 
1.189279 -3.033887 0.228039 
1.021142 -1.084228 0.262124 
0.193265 -3.493695 0.450201 
0.499652 -2.767323 0.419809 
0.303517 -2.586748 0.456657 
0.737968 -3.241391 0.324799 
-1.593723 -4.306979 0.567239 
4.898977 -1.663488 0.305184 
3.471601 -1.426893 -0.524071 
2.041644 -5.414960 -0.731269 
2.041644 -5.414960 -0.731269 
1.458247 -2.790462 0.183051 
-1.525637 -4.618483 0.537791 
-0.255644 -3.723626 0.484429 
4.827472 -1.234601 0.377894 
1.578893 -3.338448 0.078653 
4.859721 -0.969943 -3.559715 
-1.880721 -4.372229 0.543912 
-1.348718 -3.784943 0.638010 
1.230786 -1.847836 0.278472 
1.119328 -1.919379 0.300155 
-2.957391 -3.231267 0.721774 
1.110566 -1.209054 0.253507 
-0.532872 -2.433338 0.585245 
-0.122279 -0.009145 0.371014 
-0.061381 0.200694 0.364732 
5.254131 1.180685 0.241555 
5.254131 1.180685 0.241555 
5.103337 1.278352 0.271056 
3.180515 0.544315 0.511246 
3.435605 1.447162 0.444213 
-2.222049 -3.929647 0.664335 
1.490613 -2.203564 0.229469 
1.497402 -1.922088 0.208277 
1.197901 -2.139769 0.292400 
-1.782953 -3.308364 0.677680 
1.321631 -1.568041 0.225061 
-1.947256 -3.236307 0.705677 
-0.354217 -2.419700 0.571100 
-0.848474 -4.896873 -7.040228 
-2.854064 -0.504208 0.434040 
4.992795 -0.020433 0.403099 
0.133358 0.373537 -3.717950 
0.133358 0.373537 -3.717950 
0.124804 0.828414 0.275863 
-0.709095 -3.909912 0.542266 
0.206786 -3.037353 0.466882 
-1.737909 -3.724317 0.663403 
1.359292 -2.079096 0.258649 
-0.362608 -3.170547 0.563079 
5.991986 -0.935196 0.147256 
5.496113 -1.174338 0.287219 
4.592685 -1.347942 0.407882 
-1.164834 -2.257256 0.637823 
0.425879 0.648819 0.192065 
3.546557 -0.215992 0.518010 
2.881051 0.419012 0.512797 
4.251675 0.849161 0.449417 
-0.888759 1.890686 0.396596 
-1.921918 1.829322 0.472350 
-1.082263 2.125020 0.427424 
2.292183 -5.321559 -0.783593 
-2.479481 -3.723287 0.675771 
-1.241365 -3.236278 0.654967 
-1.568086 -3.278155 0.688831 
-3.699952 -3.451466 0.721849 
0.063499 -2.389687 0.523037 
-4.561903 -2.702180 0.664813 
-0.355620 -2.069106 0.563411 
0.457397 -1.518498 0.418172 
0.457397 -1.518498 0.418172 
-1.001959 -1.171723 0.526448 
-2.293333 -0.129173 0.311089 
4.961670 0.245129 0.390853 
0.150274 0.493536 0.291372 
-1.631312 1.790983 0.508067 
-1.433166 2.369964 0.452231 
0.448548 -1.076443 0.391006 
0.143659 -1.323633 0.465721 
4.918658 -0.391004 0.422484 
4.003220 -0.140482 0.499696 
4.017586 0.580419 0.485036 
-0.151627 0.822760 0.342088 
-2.687137 -4.851605 0.476128 
-1.559945 -2.875410 0.675735 
0.756867 -1.422141 0.353979 
-4.722146 -3.690873 0.583711 
4.799677 0.728050 0.374866 
-4.412426 -3.180290 0.682465 
5.417966 -0.408766 0.285547 
1.807981 -3.816639 -0.078269 
1.839998 -3.701802 1.305782 
-0.682583 -3.732481 0.570582 
0.026972 -2.230546 -2.494031 
-1.348718 -3.784943 0.638010 
0.948236 -2.225580 0.342908 
0.852277 -2.190731 0.353236 
0.852277 -2.190731 0.353236 
-2.624620 -3.169687 0.723057 
1.119328 -1.919379 0.300155 
-1.923696 -3.013710 0.698870 
0.139014 -2.389372 1.305739 
0.883335 -1.785119 0.349543 
-1.451787 -2.205388 0.656405 
-3.017255 -2.428713 0.715681 
-0.818143 -1.913900 0.595755 
-0.038656 -0.484878 -4.162209 
3.214629 -0.963189 0.483116 
4.150379 -0.787332 0.509260 
4.150379 -0.787332 0.509260 
-4.368920 -2.154736 0.683418 
5.755745 0.140280 0.187479 
4.067732 -0.647084 0.509123 
-1.315043 -1.218172 0.554706 
-4.778601 -1.747113 0.582380 
3.153342 -0.518076 0.509692 
-4.032806 -1.483758 0.627877 
3.408108 -0.220190 0.530243 
3.025807 -0.233252 0.514835 
3.203612 -0.084214 0.523258 
0.200808 -0.017994 0.316545 
3.278200 0.149357 0.504671 
0.013018 0.339035 0.336866 
4.483816 0.940748 0.396375 
0.389655 1.003338 -3.301010 
0.276740 1.524082 0.147909 
2.771152 1.363264 0.447692 
2.857778 1.508629 0.435398 
-3.333499 1.981673 -0.293544 
-3.496816 2.141526 -0.329622 
-0.150882 2.469912 0.180614 
-4.322532 2.821960 -0.327561 
3.099946 3.364136 0.086180 
-0.813801 2.772571 0.275111 
-1.958618 2.418980 0.474234 
-2.432386 2.463832 0.449985 
-3.696604 6.057134 0.051575 
4.556955 3.226775 -0.054052 
-3.451346 -0.144687 -7.080902 
-2.530644 -3.509991 0.698390 
1.061110 -2.054269 0.297522 
-1.153610 -2.955997 0.636782 
-5.233078 -3.290203 0.697290 
4.658700 -1.495963 0.379799 
2.030935 -1.217818 0.199540 
-1.012952 -1.681967 0.595249 
-0.822385 -0.866588 0.508187 
-2.619017 -1.175469 0.570558 
-2.669581 -0.933629 0.531603 
3.159791 0.301030 0.516697 
4.893922 0.960138 0.345333 
-4.371867 -0.473870 0.422332 
5.344394 1.315416 0.207101 
-4.279093 -0.266325 0.395528 
3.286353 0.558395 0.516825 
3.286353 0.558395 0.516825 
4.615464 1.060030 0.385004 
3.185249 0.795596 0.506318 
3.064173 1.295971 0.465909 
4.616754 2.132414 0.223445 
4.616754 2.132414 0.223445 
-4.323180 1.601094 0.011302 
-4.199554 1.847620 -0.082173 
-4.002497 2.974570 -0.430859 
-0.741760 2.038779 0.384588 
-1.459069 1.875047 0.452664 
-0.709353 2.267068 0.361979 
-2.119960 2.446555 0.472326 
-2.241904 2.525891 0.465938 
-2.303286 4.738914 0.211445 
-3.164910 4.456025 0.316004 
2.213123 -2.925356 -0.041975 
7.561182 -0.060817 -0.953353 
7.729382 0.095231 -0.956773 
-1.771412 -3.526649 0.675716 
-1.279919 -2.798860 0.663251 
6.581366 -0.016618 -0.130812 
-2.046379 -2.380374 0.742469 
-0.726292 -2.072640 0.585022 
-2.981014 -0.418580 0.421077 
-1.329778 -1.548057 0.583783 
-4.610698 -2.023271 0.569217 
-2.867612 -1.582230 0.637272 
-2.867612 -1.582230 0.637272 
3.294058 -0.381951 0.539032 
2.572646 0.140855 -3.210478 
-2.495120 -1.011274 0.527658 
-2.171446 -0.453305 0.347983 
4.796295 1.324136 0.309218 
-4.382950 -0.023030 0.368977 
-4.893150 0.449008 0.225341 
-4.289174 1.253374 0.081144 
-4.510232 4.512051 -0.878374 
-1.895118 2.567609 0.471708 
-4.981160 -4.918058 0.858475 
0.674776 -2.387965 0.387500 
6.581366 -0.016618 -0.130812 
-3.212230 1.258599 -5.309243 
3.649377 -0.497589 0.532624 
-5.262471 -1.435850 0.349758 
-3.918415 -1.062169 0.577669 
-3.379609 -0.608419 0.478243 
-3.163255 -0.190147 0.378415 
3.801273 0.867403 0.475975 
3.042132 1.028325 0.470178 
5.132237 2.001908 0.139598 
3.580493 1.220174 0.470949 
3.224138 1.626000 0.431290 
2.866343 1.811033 0.397425 
-0.561168 2.718661 0.232869 
-1.318702 3.335260 0.296022 
-1.318702 3.335260 0.296022 
-2.156470 3.916903 0.348429 
-2.982783 5.738880 0.079131 
2.818836 -0.029360 5.316949 
4.513245 1.124587 0.386449 
-1.576947 -2.493459 0.663779 
1.021142 -1.084228 0.262124 
0.969739 -0.364229 0.138462 
5.279501 0.716859 0.304015 
3.062723 0.089359 0.520246 
3.062723 0.089359 0.520246 
-3.615035 6.417079 -0.060485 
-2.165644 3.040636 0.462897 
-4.071008 -3.702359 0.765908 
-3.154798 -0.838871 0.514884 
6.212997 0.512695 0.015088 
-0.965271 0.219736 0.372678 
3.203745 2.329426 0.319367 
-1.270006 1.526292 0.441642 
-0.255644 -3.723626 0.484429 
-0.526558 -2.858597 0.584904 
5.479740 -1.066221 0.250978 
-3.733897 -2.525177 0.707845 
-4.145639 -2.595188 0.698587 
0.780484 -0.898233 0.290408 
4.765909 0.000065 0.402568 
3.948988 1.328300 0.436626 
4.177686 1.952402 0.324139 
4.177686 1.952402 0.324139 
4.068523 2.784077 0.188606 
-3.175978 -3.469405 0.743828 
-4.412426 -3.180290 0.682465 
-3.256594 -2.534672 0.705435 
-0.591458 -1.532013 0.534777 
-1.139026 -1.469827 -0.268784 
5.658744 0.440364 0.221715 
3.632403 0.249978 0.503788 
4.799677 0.728050 0.374866 
-2.214104 -2.899034 0.665079 
-2.090818 -2.173258 0.654849 
3.074797 -0.048553 4.876168 
3.011885 -2.980808 -1.088842 
-0.246869 -1.604651 -9.085147 
-4.373478 -5.638312 1.037096 
-4.242308 -5.393975 1.011106 
-4.362199 -5.402126 1.006994 
-4.460796 -5.387817 0.969034 
-4.460796 -5.387817 0.969034 
-4.324919 -5.124354 0.954957 
-4.324919 -5.124354 0.954957 
-4.534610 -5.136990 0.957077 
4.778716 -0.904901 -3.531318 
4.778716 -0.904901 -3.531318 
3.113668 0.335101 -2.945058 
-0.133032 -1.580059 -4.812426 
-0.463834 -2.359038 1.781342 
3.311349 -1.365252 0.964071 
0.839500 -2.039772 0.366200 
-1.167059 -2.417025 0.643947 
4.518672 -0.491065 0.429141 
-0.528761 -0.497928 -4.521517 
-1.024417 -2.005094 0.614999 
1.804720 -0.729820 -3.579210 
0.986349 -1.317454 0.316179 
1.403150 -1.052426 0.144803 
-4.924046 -2.665393 0.654710 
-3.106336 -2.225059 0.713765 
-3.467029 -2.141624 0.710938 
1.095886 -0.187399 -3.626628 
3.758031 -0.355330 0.522724 
-1.152573 -1.371558 0.568928 
-0.362294 -1.147554 0.520923 
-0.405442 -0.820759 0.477967 
6.443791 1.180417 -0.169356 
1.021820 -0.060622 0.049278 
-2.172785 -1.007875 0.526462 
-2.172785 -1.007875 0.526462 
4.751785 0.516975 0.411866 
5.792026 0.943112 0.146192 
4.823559 0.621132 0.386829 
-2.123035 -0.859710 0.493324 
-2.123035 -0.859710 0.493324 
-1.685379 -0.632393 0.448021 
-4.192432 -1.233473 0.571862 
-4.559876 -1.209162 0.537831 
-2.495761 -0.635584 0.477334 
4.595357 0.906480 0.404586 
-2.695970 -0.607264 0.455165 
3.447065 0.627135 0.504040 
3.998430 0.976682 0.432339 
2.089802 1.668323 -3.245085 
0.506816 3.775404 -7.855656 
-3.565868 -0.427533 0.438693 
-3.066798 -0.250476 0.394761 
1.822187 0.969568 0.278342 
4.939291 1.685725 0.237185 
3.183333 1.293396 0.461530 
-3.945093 -0.084866 0.354927 
4.978613 2.086064 0.155053 
-4.279803 0.131407 0.319481 
5.065804 2.252865 0.101127 
5.065804 2.252865 0.101127 
4.952424 2.312849 0.106248 
4.696496 2.269511 0.185198 
5.140010 2.952373 -0.174954 
-4.413101 0.718853 0.200120 
3.629444 2.881691 0.219254 
4.622376 3.857969 -0.159498 
-4.309060 1.970673 -0.109535 
3.999983 3.740747 -0.021594 
3.999983 3.740747 -0.021594 
-0.284774 2.829230 0.131341 
-0.813801 2.772571 0.275111 
-2.432386 2.463832 0.449985 
-4.715324 2.893775 -0.341423 
-4.715324 2.893775 -0.341423 
-3.958319 3.244082 -0.520255 
-3.958319 3.244082 -0.520255 
1.961313 1.018896 7.312374 
-1.928526 3.166293 0.432618 
-4.396802 3.330023 -0.474024 
-4.396802 3.330023 -0.474024 
-4.576960 3.698552 -0.578631 
-4.774374 4.214863 -0.817760 
-4.029488 2.856460 2.560344 
-1.563972 4.314710 0.151103 
-3.252875 4.573754 0.307598 
-2.365829 4.903194 0.188856 
-2.365829 4.903194 0.188856 
-2.125519 5.493460 -0.011145 
-3.568379 5.038933 0.234908 
-3.078901 5.229805 0.191628 
-3.682901 5.055851 0.241413 
-0.907550 3.058737 8.431377 
-1.124696 -4.007483 -9.711648 
-0.087285 -4.963877 -6.671827 
-1.750576 -5.461156 -5.535084 
-1.576763 -1.323126 -7.137279 
-1.759300 -4.051319 -0.189095 
1.237225 -4.165392 -0.469328 
-4.206193 -5.141737 0.971104 
-0.946777 -3.939031 0.559965 
1.346405 -3.648593 0.523040 
-5.801595 0.379172 -5.837289 
5.014196 -1.504457 0.337280 
-1.650759 -3.011481 0.669633 
4.658700 -1.495963 0.379799 
1.685948 -1.696323 0.154478 
5.479488 -0.780740 0.285810 
0.253480 -0.845171 -4.165589 
-0.842095 -2.193030 0.621345 
2.921606 -1.108356 0.451812 
-3.017258 -2.434066 0.709829 
1.656717 -0.444398 -3.548772 
3.177791 -0.667978 0.485474 
-4.368920 -2.154736 0.683418 
1.130810 -0.267902 0.049327 
5.249175 0.508508 0.324450 
-0.504263 -0.740031 0.483995 
-1.887576 -0.807135 0.478878 
-4.072794 -1.275338 0.593544 
-1.541619 -0.610165 0.452870 
-0.893584 -0.383203 0.448095 
0.107750 0.164267 0.328080 
-2.155952 -0.349637 0.382117 
5.409441 1.499883 0.173788 
5.409441 1.499883 0.173788 
4.650311 1.288986 0.345679 
-2.683896 -0.149956 0.347325 
-2.683896 -0.149956 0.347325 
5.614517 1.744870 0.079557 
-2.401719 0.180003 0.227994 
3.064173 1.295971 0.465909 
3.064173 1.295971 0.465909 
3.435605 1.447162 0.444213 
3.360257 2.861897 -3.995792 
2.737506 1.583008 0.419559 
-1.182445 0.847065 0.430933 
3.475274 2.109204 0.355297 
2.287938 1.913880 0.348986 
0.347096 1.940235 0.109838 
2.759420 2.502083 0.269053 
-0.143290 2.661605 0.130456 
-0.146604 2.662151 0.136489 
-4.175648 2.075095 -0.163364 
-4.937677 2.115321 -0.147357 
-4.294543 2.392251 -0.206971 
-4.389021 2.497044 -0.235419 
3.560474 4.982221 -0.433832 
-4.925849 3.405389 -0.510150 
-4.410355 3.604795 -0.553774 
-2.494473 3.578963 0.406878 
-2.494473 3.578963 0.406878 
-4.457184 4.082144 -0.750702 
-2.553770 3.711579 0.402372 
-1.961578 4.078186 0.296204 
-1.961578 4.078186 0.296204 
-1.855181 4.183645 0.249323 
-1.988205 4.339330 0.233156 
-2.683064 4.495446 0.316439 
-5.343283 4.803156 -0.973060 
-4.583380 5.181262 -0.957705 
-2.952618 4.765415 0.276187 
-2.952618 4.765415 0.276187 
-4.618593 5.471770 -1.024311 
-2.879680 5.571847 0.087483 
2.742243 -1.680748 -3.213051 
0.206786 -3.037353 0.466882 
0.649800 -2.650196 0.398559 
0.668492 -2.399132 0.385592 
-2.020204 -2.684066 0.693971 
-2.046379 -2.380374 0.742469 
5.128402 -0.863207 0.403725 
4.943471 -0.805899 0.435341 
-5.269074 -2.908087 0.600401 
5.100299 -0.648032 0.408735 
-1.145658 -1.971818 0.616304 
-4.822467 -2.529249 0.650491 
-4.513204 -2.384848 0.694871 
0.011936 -0.084069 -4.001889 
-5.035545 -2.105619 0.582537 
5.252438 0.501725 0.311678 
-0.273600 -0.762719 0.469134 
-2.390209 -1.264960 0.578103 
-2.390209 -1.264960 0.578103 
5.003244 0.616278 0.363047 
3.825443 0.402566 0.506021 
-1.890416 -0.613096 0.436081 
6.161909 1.487414 -0.104830 
2.881051 0.419012 0.512797 
4.754148 1.140386 0.355935 
0.504504 0.448202 0.180543 
0.647320 0.652331 0.086726 
-4.371867 -0.473870 0.422332 
-3.554557 -0.144508 0.323954 
-2.422191 0.189972 0.229130 
0.485311 1.251864 0.115163 
4.410391 2.570258 0.170156 
4.410391 2.570258 0.170156 
-4.057384 1.258380 0.045099 
-4.323180 1.601094 0.011302 
-4.834360 2.224031 -0.172924 
-0.373704 2.994705 0.117236 
-1.895118 2.567609 0.471708 
-1.845994 3.078879 0.400603 
-4.196559 3.299790 -0.497427 
-4.568640 4.825092 -0.922654 
-2.568283 4.652667 0.265259 
-2.384732 5.310248 0.087800 
-2.811353 5.918483 0.008948 
0.147554 -3.296370 0.445106 
0.497414 -2.773355 0.416882 
-4.326280 -3.695463 0.620559 
-0.311762 -2.810291 0.558479 
5.495971 -1.173243 0.288649 
-0.176534 -2.220457 0.544034 
5.129411 -0.869091 0.395633 
-0.258529 -0.096965 -4.132073 
0.393619 -0.455656 0.329745 
3.821597 0.401893 0.511592 
0.653836 0.668234 0.093433 
0.425879 0.648819 0.192065 
0.302146 0.921746 0.211537 
5.268989 2.310481 0.027542 
4.259023 2.326513 0.250256 
-4.893150 0.449008 0.225341 
-3.555038 1.209388 -0.011226 
3.346465 2.703482 0.254636 
-1.177398 2.367484 0.426161 
-4.199398 3.298339 -0.494358 
-4.457970 3.813312 -0.662320 
-4.313460 4.600295 -0.875931 
-4.562467 4.809721 -0.914306 
-3.182915 5.838372 0.082260 
-0.322242 -2.813731 0.571905 
3.922093 -1.711374 0.413959 
-1.794261 -2.665082 0.653691 
6.061032 -0.641995 0.089970 
6.756293 -0.146824 -0.253794 
-0.000861 -0.670691 -4.233523 
1.588119 -0.876238 0.069305 
6.567142 0.450594 -0.120131 
-2.441304 -1.758831 0.650994 
-2.441304 -1.758831 0.650994 
6.411762 0.881680 -0.119817 
2.396151 -0.177484 0.402600 
5.939154 1.118797 0.056536 
5.691706 1.438648 0.072084 
0.909948 0.817361 -0.058799 
5.298395 1.737460 0.169900 
-3.368046 0.414730 0.186027 
-1.631312 1.790983 0.508067 
-1.718068 2.318020 0.481902 
3.458702 4.733977 -0.363292 
-2.670670 3.826386 0.390975 
-4.759403 4.544581 -0.883290 
-2.185967 4.495073 0.238703 
-2.783187 4.520976 0.305867 
-2.288798 5.054769 0.136699 
-2.954923 5.362428 0.126324 
2.157690 -7.548782 -2.180410 
-2.749675 -3.275999 0.704264 
-2.437912 -1.751638 0.653299 
-1.293627 0.371969 0.388958 
4.846068 2.283815 0.146776 
-0.891547 1.104342 0.403678 
-1.270006 1.526292 0.441642 
-4.574791 2.137436 -0.122657 
-2.269817 3.915110 0.380269 
-2.546874 4.303743 0.321061 
-3.545147 -3.860099 0.708200 
-3.545147 -3.860099 0.708200 
5.306331 -1.449383 0.282765 
-2.748149 -3.283865 0.693158 
-5.165746 -2.579164 0.593150 
2.912768 -0.629252 0.488972 
-1.665140 -1.479707 0.583260 
-1.665140 -1.479707 0.583260 
-4.166086 -0.718861 0.515049 
-0.138523 0.825050 0.323102 
3.676804 1.602233 0.403299 
-4.573493 2.133093 -0.129537 
-1.092818 2.570465 0.394086 
4.743372 4.834221 -0.475665 
-2.610580 5.243121 0.128133 
-2.610580 5.243121 0.128133 
-2.617226 6.074601 -0.137101 
7.523586 -1.937783 -1.398898 
-0.100841 -3.128947 0.498662 
-0.100841 -3.128947 0.498662 
-3.733822 -2.837342 0.669011 
-2.030617 -1.229923 0.576348 
0.493769 0.109563 0.208381 
4.722732 1.787015 0.263137 
-0.570853 0.691327 0.391359 
-0.570853 0.691327 0.391359 
-4.215137 0.528428 0.211640 
-3.231842 1.472528 -0.228763 
3.452418 4.168648 -0.153906 
-5.247831 3.709279 -0.637769 
-4.700850 1.096229 0.087327 
-3.467656 -1.427577 0.579029 
-2.439543 -1.152599 0.567596 
7.133665 -0.687801 -1.245289 
7.089194 -0.672535 -1.155656 
