ply
format ascii 1.0
element vertex 408
property float x
property float y
property float z
end_header
-0.399600 5.214253 -4.945560 
-3.760133 2.028228 1.785713 
-4.225714 0.988443 1.379288 
1.065955 0.168627 0.432036 
5.762367 2.578304 1.886557 
2.966663 4.736233 1.647351 
-3.427824 2.737374 2.043399 
-1.875935 2.371591 -5.762500 
2.783706 -1.938883 0.520072 
-0.076346 -2.271275 -0.223722 
2.212979 3.250714 -3.859762 
-0.060746 5.196717 -5.678867 
3.388903 -2.300928 0.051077 
-4.726139 1.999563 1.827191 
-2.040518 2.340176 -5.906454 
1.605872 0.929206 0.677077 
-3.956457 2.443282 1.956689 
-2.002938 1.647822 -4.345861 
-5.042609 1.196881 1.533316 
2.722870 -1.885612 1.158526 
2.968578 -1.858297 0.134115 
-5.047306 2.308807 1.914021 
-1.961085 2.597729 -6.209791 
0.881994 0.487184 0.562688 
-0.177761 -0.119514 -0.501101 
-0.177761 -0.119514 -0.501101 
-3.823419 -0.873406 0.449952 
-3.870594 -0.542601 0.618152 
3.099207 4.325553 1.444944 
-0.226894 5.149611 -5.628755 
5.839834 2.251839 3.621992 
-0.422520 5.092411 -5.562247 
-4.235815 1.411586 1.565292 
-4.175980 1.248898 1.489068 
-4.113447 0.559495 1.172530 
-3.603054 0.104071 0.895692 
-4.505595 0.116184 0.996873 
-4.662618 0.039226 1.004741 
-4.510297 -0.159375 0.895906 
-4.081919 -0.327765 0.755311 
-4.425187 -0.309050 0.802506 
4.095860 2.965637 2.222231 
4.323919 2.351459 1.952193 
3.721321 -0.418767 0.923147 
2.464866 5.557415 2.032833 
3.199058 4.918187 1.700282 
-4.703627 -0.160495 0.912715 
-3.585051 2.533701 1.990729 
-3.636569 1.351390 1.466638 
-0.848883 -0.407159 6.876344 
-3.590385 0.705083 1.187721 
-4.317850 0.353752 1.093197 
-5.217980 0.258590 1.146122 
-5.217980 0.258590 1.146122 
-4.891234 0.212644 1.105728 
0.063480 5.325438 -5.331110 
5.475015 2.107028 1.745069 
-0.502130 5.123205 -5.122010 
-3.581729 3.345305 2.306752 
-3.331114 0.967018 1.267793 
4.825716 2.264337 1.886853 
3.391706 -0.588000 0.869719 
3.615687 -0.463751 0.911861 
3.238946 -0.879896 0.739257 
-3.956457 2.443282 1.956689 
-0.568352 1.179711 5.490351 
-4.550362 0.416544 1.166197 
3.513476 0.009020 1.084036 
-0.270656 5.318295 -4.602657 
-3.460431 1.446467 1.482215 
-5.345109 -0.652637 0.714488 
-0.105007 5.709811 -2.572363 
-3.671529 1.009099 1.329218 
-0.510956 5.407900 -3.322569 
-5.575727 -0.797436 0.649091 
0.791369 1.097624 -0.601165 
-0.838510 -0.283696 6.771526 
-2.476736 0.615315 0.924228 
3.835592 2.508798 1.998766 
3.264478 3.588391 1.095334 
6.549442 0.941563 1.487252 
6.750861 1.464592 1.219417 
-2.139697 -2.648659 4.364456 
5.326531 1.874787 1.666521 
6.491705 1.320951 1.183159 
5.022601 1.833664 1.647735 
6.287268 0.553296 0.847349 
-3.685420 -0.854312 0.436188 
-3.752543 -0.987584 0.362380 
-3.964390 -0.967185 0.410180 
-5.030230 -0.689527 0.679426 
-5.818546 -1.042443 0.544022 
-5.319773 -1.235584 0.406924 
-0.736277 -2.933026 -0.576890 
-0.192212 -2.748531 -0.419629 
0.463432 -3.144602 -0.552522 
0.463432 -3.144602 -0.552522 
-4.531137 0.042938 1.029758 
-4.338800 1.723546 1.698440 
-0.705754 4.880253 -5.960170 
-0.705754 4.880253 -5.960170 
1.729066 -1.111383 1.278135 
2.731970 -1.769545 2.569829 
3.857233 2.279592 1.894823 
6.529533 1.579673 1.301394 
4.672235 2.151501 1.847314 
6.613426 1.191272 1.097622 
5.872051 1.528574 1.424073 
-0.894521 -0.560772 0.300911 
5.054258 1.434888 1.459145 
-3.749059 -0.114729 0.814144 
-5.965429 -0.011068 1.055438 
-5.863881 -0.127354 1.011809 
-5.863881 -0.127354 1.011809 
-3.870594 -0.542601 0.618152 
-5.507990 -0.219126 0.942008 
-4.277565 -0.433360 0.729078 
-3.288863 -0.944889 0.313493 
-2.460628 -2.016959 -0.452048 
-5.345109 -0.652637 0.714488 
-4.831146 -1.002218 0.500079 
4.897239 -1.612261 -0.428368 
5.086636 -1.754797 -0.488334 
3.361825 -0.202663 1.037022 
2.980683 -0.347710 0.944123 
4.092851 -0.915572 0.677043 
4.092851 -0.915572 0.677043 
2.975892 -1.129579 0.616317 
2.988798 -1.393891 0.502746 
4.217927 -2.108857 0.078901 
1.937237 -2.757261 -0.227681 
2.950369 -2.767753 -0.197199 
2.627273 -1.917456 1.271587 
3.587025 5.592113 1.952860 
-0.222170 5.651607 -2.350547 
1.419343 4.502693 1.529360 
2.497062 4.136959 1.384314 
-4.335161 0.550250 1.202205 
-5.642712 0.546207 1.297318 
-4.018511 3.118836 2.226185 
-0.710610 5.658742 -8.139527 
-3.209066 1.844449 1.655894 
-3.209066 1.844449 1.655894 
1.449351 -2.530124 -0.704489 
-2.588904 1.090454 1.189881 
5.165460 2.930001 2.136360 
-4.317850 0.353752 1.093197 
6.478357 0.719753 0.883298 
-2.350273 -1.358083 -0.128273 
-5.601114 -0.036145 1.036740 
-5.150183 -0.085297 0.984939 
-2.042005 -1.630754 -0.284560 
-2.259850 -1.873741 -0.389548 
-5.473473 -0.516945 0.791980 
-4.164156 -1.258755 0.347359 
5.559355 -1.901566 -0.567210 
2.587693 -1.778767 0.310194 
3.394290 -2.042027 0.186422 
2.519891 -2.625994 -0.124368 
-4.791200 -2.009723 -0.079616 
-0.289750 5.521575 -3.297633 
-0.289750 5.521575 -3.297633 
-0.551732 5.024480 -5.511697 
-4.338800 1.723546 1.698440 
5.521325 1.528982 1.457860 
-2.446988 -1.754065 -0.317640 
-4.342954 -1.012368 0.404697 
5.708129 -1.560774 -0.379430 
-0.191618 -2.678375 -0.400479 
-0.191618 -2.678375 -0.400479 
3.206010 -1.361596 0.522929 
-3.487960 1.989702 1.706840 
-6.027363 -0.882457 0.627567 
-5.147672 1.497668 1.696811 
-4.146214 0.746134 1.272981 
7.187960 1.043294 0.895874 
-1.933156 -0.705476 0.158627 
-2.198636 -0.779108 0.163695 
-2.105635 -1.330573 -0.127112 
-4.220835 -0.617750 0.630654 
-3.872814 -1.385415 0.190615 
3.238946 -0.879896 0.739257 
4.125126 -1.514583 0.382759 
-0.223387 5.098367 -5.896917 
-1.939435 2.318165 -5.731240 
-5.360213 0.195893 1.133777 
-0.290701 -2.349923 -0.160600 
-3.292066 1.957174 1.767145 
-3.980125 0.323593 1.053030 
-1.093184 0.485415 -1.887376 
7.632333 1.317773 1.260929 
0.487585 4.972663 1.754593 
0.618775 4.681848 1.605002 
2.710952 4.104655 1.360814 
1.631340 4.025545 1.282116 
-0.780452 5.369847 -2.861819 
1.281965 3.779320 2.247670 
2.280655 1.566817 -0.058649 
3.996189 2.802593 2.135961 
4.991274 1.975842 1.753216 
5.022601 1.833664 1.647735 
4.215448 1.774662 1.680710 
-1.971909 2.252539 -5.581506 
6.129900 0.920571 1.064735 
2.681195 -1.659203 3.446668 
6.234081 -0.064126 0.475268 
-2.664608 0.915680 1.120054 
1.156918 -3.894478 -0.764641 
-0.954985 1.045272 -6.743850 
5.178908 -1.192762 -0.195524 
-1.747399 0.425141 -0.370513 
3.770262 -0.616608 0.843068 
3.770262 -0.616608 0.843068 
3.141110 -0.567616 0.875709 
-3.948260 -0.067187 0.865536 
5.236532 -2.448659 -0.869158 
5.236532 -2.448659 -0.869158 
-6.523711 -0.204714 1.069865 
4.839434 -3.171020 -1.254308 
-3.282746 -1.111975 1.778016 
3.565811 -2.317961 0.051969 
-5.818546 -1.042443 0.544022 
-6.210757 -1.055879 0.519244 
2.921183 -2.447880 -0.018949 
-5.756770 -1.304061 0.395058 
4.879534 -4.098982 -1.809506 
2.766079 -2.704475 -0.174591 
-3.138243 -2.391033 -0.554663 
-5.631752 -1.795231 0.086195 
-5.684744 -2.190233 -0.147115 
-5.684744 -2.190233 -0.147115 
0.881930 -2.940985 -7.320393 
2.709334 -3.769817 -0.780855 
1.953902 -3.783702 -0.769580 
-5.724678 -1.917663 -2.044802 
2.504273 -3.973462 -0.893612 
0.119516 -3.882866 -0.980945 
1.797262 -4.155464 -1.027812 
-4.385473 -4.651874 1.344212 
3.153980 -6.256650 -0.888060 
2.122842 -6.846089 -3.801424 
1.940992 5.794995 2.184596 
1.994220 5.237047 1.898345 
0.964116 4.729269 1.661587 
6.350590 0.971104 -0.183201 
3.686030 2.513936 2.008781 
5.534073 1.624557 1.506822 
5.156789 1.255464 1.354081 
5.303976 1.025895 1.223232 
5.303976 1.025895 1.223232 
-1.875935 2.371591 -5.762500 
-4.968801 2.102849 1.878553 
-0.152885 0.660416 -6.762167 
-4.094831 0.981517 1.365043 
3.721321 -0.418767 0.923147 
-3.949755 -0.060623 0.869152 
-4.152574 -0.181300 0.841402 
3.284120 -1.148998 0.618496 
-3.685420 -0.854312 0.436188 
-3.108519 -1.100572 0.169590 
5.259662 -3.081764 -1.252784 
-5.978818 -0.446703 0.843742 
3.347547 -4.164130 -4.894681 
-5.048124 -0.972483 0.522771 
4.236605 -2.465838 -0.100649 
-2.460628 -2.016959 -0.452048 
-3.222815 -1.918502 -0.239160 
2.966514 -2.572208 -0.078970 
-4.951435 -1.504289 0.232395 
-4.916740 -1.700012 0.115022 
2.088890 -2.745771 -0.216106 
2.088890 -2.745771 -0.216106 
-3.506451 -2.313523 -0.431952 
1.789263 -2.870581 -0.307886 
3.071609 -3.270934 -0.448983 
-2.045893 -3.144923 -1.035690 
-2.045893 -3.144923 -1.035690 
2.913138 -3.332860 -0.495448 
-4.092822 -0.353437 -3.087607 
2.781984 -3.442541 -0.572670 
2.781984 -3.442541 -0.572670 
2.072937 -3.496749 -0.611388 
1.159027 -3.707004 -4.595844 
3.178780 -7.240947 -4.037822 
3.464842 -7.456063 -4.139571 
-0.521804 5.494555 -2.436319 
-0.399600 5.214253 -4.945560 
-0.474576 5.192092 -4.770616 
2.274085 3.862705 1.245068 
4.864960 2.730270 2.069222 
1.969284 3.807346 -7.483364 
-3.820993 3.352882 2.343754 
6.771809 1.253091 1.092001 
3.514861 -2.307817 -1.794823 
6.642589 0.621633 0.804986 
5.701952 0.477366 0.882074 
5.704472 0.237429 0.714116 
5.704472 0.237429 0.714116 
3.605218 0.604254 -4.070889 
3.659804 -0.183355 1.024080 
-2.839417 -0.640020 0.390317 
-3.705936 -0.518008 0.614549 
-5.472081 -0.528533 0.787760 
-2.622479 -1.567811 -0.181902 
-1.439625 -1.582609 0.031352 
-2.617153 -2.002115 -0.417530 
4.644546 -3.851958 -1.634332 
2.950369 -2.767753 -0.197199 
1.226266 -2.638753 -0.244494 
-0.459097 -3.098384 -0.619913 
-0.459097 -3.098384 -0.619913 
1.503437 -3.940272 -0.902166 
-4.571516 -1.068500 -5.184116 
2.207792 -7.270025 -3.996145 
2.207792 -7.270025 -3.996145 
1.800779 4.274223 1.424900 
-0.720864 5.498712 -2.202175 
-0.844812 2.339493 1.879709 
-2.575774 2.064391 6.404147 
7.202668 0.700530 0.730248 
7.202668 0.700530 0.730248 
3.056534 -1.723086 0.950850 
1.084946 -0.466545 -5.377025 
5.395059 0.530966 0.896272 
-1.279339 0.855688 -0.415180 
5.231597 -0.898110 -0.040131 
3.661311 -0.168957 1.023711 
3.661311 -0.168957 1.023711 
-3.756818 0.141599 8.283915 
-4.802378 0.274535 1.120865 
-2.828129 -0.629242 0.372417 
-3.700293 -0.486425 0.621293 
-5.148912 -0.074281 0.984451 
-3.865677 -0.668552 0.549852 
-3.865677 -0.668552 0.549852 
1.270240 -3.297286 -1.156924 
-0.624738 -2.570360 -0.376742 
-5.078375 -1.761056 0.107096 
3.306748 -3.368211 -0.537914 
-5.645800 -2.202170 -0.172120 
-0.242164 -3.150614 -0.639465 
-5.342943 -2.525509 -0.479992 
-3.389012 -4.832261 1.702790 
1.754573 -3.906452 -0.865724 
-5.404349 -3.999385 0.288521 
2.471133 5.394390 1.965960 
1.929905 4.917131 1.739595 
-0.665193 5.443220 -2.651065 
6.022392 0.671802 3.292491 
4.828136 1.930534 1.731334 
-1.150346 3.351336 -5.335911 
4.703166 1.567529 1.587264 
-4.025795 2.767450 2.070558 
4.781870 1.206735 1.364772 
5.826382 0.948124 1.097193 
4.512627 1.237959 1.349859 
4.512627 1.237959 1.349859 
6.435325 0.227343 0.603520 
-3.331114 0.967018 1.267793 
5.708129 -1.560774 -0.379430 
5.989447 -1.934767 -0.639123 
2.846811 -0.782920 0.767437 
2.846811 -0.782920 0.767437 
5.296734 -2.075551 -0.672348 
3.506268 -1.443251 0.478058 
2.840254 -1.829266 0.285827 
-3.373446 -1.304785 0.127847 
-3.016920 -2.242000 -0.530121 
-5.782050 -1.384332 0.356859 
-5.782050 -1.384332 0.356859 
-2.090732 -2.574017 -0.732310 
-0.981278 -2.436863 -0.373111 
-0.593442 -2.892672 -0.578194 
-4.929818 -2.351509 -0.269223 
1.078626 -3.326298 -0.594297 
2.440282 -7.967341 -4.316111 
2.440282 -7.967341 -4.316111 
-0.753353 4.808140 -6.138133 
2.907329 -1.809283 0.856895 
6.602710 -0.455938 0.181076 
6.764861 -1.420537 -0.406484 
-1.268018 -1.740631 -0.101018 
2.620781 -2.232259 0.036346 
-5.486641 -1.052440 0.501848 
-5.113326 -1.315930 0.301556 
-5.433985 -1.514624 0.223246 
-4.760182 -1.668520 0.144844 
2.329379 -3.023129 -0.343675 
-6.559706 -2.463423 -1.422707 
1.355361 5.860128 2.193276 
-0.220213 5.083798 -5.904693 
-4.286981 3.775032 2.429031 
-7.225923 2.066775 -0.325062 
5.981838 0.225539 0.637096 
5.313754 -1.490591 -0.375264 
-2.598145 -0.492299 0.341249 
-3.089647 -1.587926 -0.083525 
-3.883896 -1.876479 -0.055437 
-2.720797 -3.558434 -1.622782 
-0.821940 -1.898832 -6.550509 
5.837483 -0.848982 -0.097560 
3.759798 -1.797017 0.248884 
-0.545673 -2.086448 -0.128512 
-3.409675 4.107746 2.510717 
6.173140 1.647191 1.312629 
-2.116883 -1.392855 5.200090 
-3.066756 6.727433 -5.540508 
-6.866765 0.553144 0.999315 
