ply
format ascii 1.0
element vertex 874
property float x
property float y
property float z
end_header
4.387288 0.657006 -0.125823 
-3.123579 -1.361520 0.098928 
4.100734 0.253202 -0.105021 
1.349426 -1.066555 0.164497 
-0.236882 0.072119 -0.035182 
-0.313161 -5.139604 -0.140642 
-2.499899 -1.042478 0.058457 
1.523259 -1.749887 0.251513 
5.229372 -0.029569 0.012527 
5.208987 0.417664 -0.027723 
5.208987 0.417664 -0.027723 
0.762690 -1.430373 0.165193 
0.697836 -1.222700 0.145015 
4.748535 0.296692 -0.056595 
-0.150811 -1.472903 0.141474 
-0.150811 -1.472903 0.141474 
3.623584 0.684886 -0.177585 
3.623584 0.684886 -0.177585 
-0.556243 -5.241990 -0.170512 
-1.795821 -5.862363 -0.181672 
-4.491793 2.227946 -0.208301 
-4.138990 3.013040 -0.267705 
5.889213 1.287493 -0.010324 
1.263207 -1.424200 0.206494 
3.374800 -1.326737 0.105557 
1.087707 -1.429514 0.183205 
0.211634 -1.733964 0.188107 
3.373132 -1.174648 -5.553996 
-3.559181 -0.723568 0.786480 
2.192335 -2.269816 0.329504 
-0.101815 -1.780712 0.189429 
-4.194855 2.505591 -0.213630 
4.190857 -1.203947 0.110616 
4.860062 -0.147471 -0.023827 
3.219028 -1.203393 0.108507 
0.532029 -1.600071 0.188040 
-4.945020 1.613316 -0.132163 
5.898797 0.576350 0.065116 
4.178442 -0.256668 -0.063721 
1.445380 -1.477428 0.193839 
3.736665 -1.220672 0.107304 
0.280770 3.489639 0.139671 
3.942801 0.036734 -0.124712 
-3.577228 -0.704026 0.469025 
-1.229265 -0.543384 0.020086 
-2.549387 -1.983464 0.123854 
1.396635 -3.012959 0.276139 
1.283688 -3.148285 0.266681 
1.405772 -2.662150 0.267600 
1.636097 -1.854626 0.250540 
1.636097 -1.854626 0.250540 
0.779002 -1.766191 0.216517 
5.112804 0.492172 -0.041189 
5.263125 2.455578 -0.049740 
0.534537 -1.279767 0.145143 
4.874839 1.718422 -0.115943 
3.696389 0.397743 -0.162652 
-3.461281 -0.415508 0.085847 
3.588076 0.940429 -0.202334 
3.349913 0.876374 -0.223824 
-2.413028 -0.950674 0.049405 
-1.240797 4.143534 0.136441 
-5.217378 2.118984 -0.177771 
-3.819018 3.617827 -0.282556 
1.585165 -3.839961 0.289592 
1.516746 -2.709731 0.275852 
4.052087 -1.463734 0.145854 
1.846087 -1.816831 0.273535 
1.846087 -1.816831 0.273535 
5.771826 0.903709 0.019125 
5.048041 -0.346677 0.024003 
1.426385 -1.260344 0.221279 
3.434307 -0.985594 0.041864 
5.246315 1.082856 -0.060019 
4.003811 -0.344509 -0.031062 
4.498199 0.622746 -0.109364 
4.186707 0.172652 -0.103682 
4.540778 0.885709 -0.117162 
3.511541 1.016216 -0.213223 
-1.335157 -0.639320 0.026518 
-2.263121 -5.262067 -0.233179 
-1.987098 -0.889918 0.041371 
-1.586691 -2.249121 -1.550868 
-1.312723 3.778512 0.141139 
-0.942158 -5.006138 -0.219713 
-1.519985 5.276406 0.078851 
-1.664128 4.956970 0.068235 
3.589934 -1.579051 0.182104 
-4.895619 1.814342 -0.158388 
1.810706 -3.030185 0.298694 
4.537604 -1.452677 0.164483 
-0.439491 1.520818 0.053192 
1.671699 -2.811720 0.289392 
1.671699 -2.811720 0.289392 
4.361003 -1.079799 0.100525 
5.386257 1.305937 -0.051252 
-0.256590 -2.017579 0.236503 
0.181417 -1.359156 0.147626 
-1.130492 -2.127780 0.190988 
0.171394 -1.210702 0.128819 
2.665815 -0.516865 -0.082882 
-1.434672 -1.186622 0.060227 
-1.527891 4.230827 0.128702 
-3.196169 -5.469272 -0.174748 
-3.464030 1.595590 0.091596 
-1.898937 4.842460 0.051059 
-1.787020 5.813478 -0.002317 
-3.660509 3.483186 -0.266486 
5.897575 0.165185 0.100939 
1.432209 -2.882491 0.264194 
1.920160 -1.331969 0.269235 
4.629159 -0.775784 0.056806 
5.109788 1.120216 -0.060521 
4.082602 0.562391 -0.130843 
3.448246 0.743425 -0.202622 
-2.099950 -5.579704 -0.184701 
-3.124123 -1.582871 0.122005 
4.400166 -1.631506 0.205432 
5.534279 1.055343 -0.016874 
0.226547 -6.135850 0.050130 
4.552430 1.086876 -0.120183 
3.884809 0.403502 -0.145224 
-1.344854 4.030171 0.132605 
0.330252 -1.336443 0.134064 
0.330252 -1.336443 0.134064 
1.167574 -1.651396 0.213375 
4.360959 -0.696581 0.036684 
3.256342 -0.911706 0.028670 
4.337434 -0.028216 -0.067312 
0.674731 -1.210731 0.148094 
4.496930 0.364858 -0.111099 
3.139565 -0.586983 -0.077290 
-1.726461 4.643079 0.070798 
-1.359840 5.590395 0.072346 
5.666466 -0.120690 0.060036 
5.119284 -0.013230 0.027429 
1.091711 -1.188651 0.170749 
4.707474 -0.326991 -0.045745 
-1.934398 -5.340529 -0.204877 
2.066045 -2.567400 0.342496 
-1.762336 4.600863 -3.207645 
1.663318 -2.955067 0.291985 
1.653602 -3.002150 0.316084 
-3.921601 3.677995 -0.286540 
5.197678 0.817820 -0.047909 
5.197678 0.817820 -0.047909 
5.666481 1.493831 -0.016184 
5.704929 1.595515 -0.025430 
4.931528 0.832437 -0.084002 
5.163914 1.367973 -0.067758 
2.469629 1.856412 6.899881 
5.323164 2.072944 -0.051849 
5.040493 1.704344 -0.079063 
4.362032 0.779724 -0.118056 
4.362032 0.779724 -0.118056 
-1.693438 -4.947054 -0.244566 
4.115381 0.983086 -0.151239 
4.687736 2.185599 -0.096642 
-1.801715 -4.439292 -0.263984 
6.235881 3.413036 -0.147378 
3.577929 0.767148 -0.193011 
3.577929 0.767148 -0.193011 
-2.589352 -4.081323 -0.221177 
3.378534 1.168888 -0.224467 
2.271019 0.588011 -0.169214 
-1.669022 -1.157102 0.063226 
-3.074046 -1.766098 0.127353 
-3.074046 -1.766098 0.127353 
-2.170505 -1.263955 0.061862 
-2.170505 -1.263955 0.061862 
-1.171315 0.007642 0.011591 
-1.534206 -0.044017 0.021084 
3.857749 3.907045 0.911812 
-1.818493 -0.123250 -0.017358 
-1.630339 0.094880 0.009984 
-2.556836 -0.504188 0.043756 
0.710061 2.904013 0.138217 
-1.650874 0.783400 0.030553 
-3.683406 -0.516914 0.110334 
0.214990 3.334333 0.156886 
-2.661705 0.197400 0.053012 
-1.089421 4.015110 0.152271 
-1.498303 3.991169 0.142325 
-2.002969 2.869093 0.007701 
-1.882540 5.441327 0.023887 
1.312187 -4.297204 0.312722 
-5.644205 2.890160 -0.183793 
-2.030663 -2.110291 0.137839 
2.001233 -2.706535 0.317468 
4.217793 -0.917729 0.059864 
5.609467 -0.784137 0.160432 
1.923722 -1.926329 0.284299 
1.923722 -1.926329 0.284299 
1.556105 -1.597933 0.257373 
0.496970 -2.124064 0.280384 
1.390153 -1.755701 0.237867 
-0.820332 -5.447722 -0.188805 
5.269928 0.759679 -0.041303 
5.269928 0.759679 -0.041303 
-0.696170 -5.115087 -0.196877 
5.119969 1.478459 -0.084610 
4.209711 0.840983 -0.145621 
-1.797691 -2.061930 0.164681 
3.958055 0.870337 -0.156910 
4.859241 2.403626 -0.092343 
-1.770635 -1.836009 0.123989 
4.662517 2.318030 -0.106147 
4.662517 2.318030 -0.106147 
-1.996942 -1.812841 0.121568 
4.422804 2.417653 -0.119700 
-2.266135 -1.798726 0.110659 
-1.344665 -1.050735 0.069792 
3.267658 1.373919 -0.230075 
-3.378742 -1.543311 0.118466 
-3.562862 -0.684365 0.063394 
-1.142236 -0.205917 0.014222 
-1.142236 -0.205917 0.014222 
-2.413028 -0.950674 0.049405 
-3.715296 -0.116020 0.109736 
-3.331294 -0.946429 0.090993 
-2.357347 -0.201421 0.029413 
-3.284097 -0.516465 0.065290 
-0.679637 3.827453 0.142867 
-3.428020 1.159728 0.130877 
-1.664128 4.956970 0.068235 
-3.985604 2.879827 -0.293857 
-2.807471 5.591224 -0.113969 
-4.591655 2.774272 -0.247081 
-3.700100 4.164480 -0.300446 
-2.777705 -4.549479 -0.205032 
4.327293 0.487989 -0.093468 
0.999473 -5.219340 0.174757 
1.585165 -3.839961 0.289592 
1.413721 -2.540198 0.270805 
1.413721 -2.540198 0.270805 
5.690498 1.315511 -0.015909 
5.690498 1.315511 -0.015909 
-0.880509 -5.144142 -0.205552 
3.898890 0.184134 -0.125932 
-2.739986 -5.507261 -0.217438 
0.087744 -1.106896 0.085565 
-1.948371 -4.956498 -0.252805 
-1.948371 -4.956498 -0.252805 
4.765540 1.879238 -0.101983 
-3.446917 -5.132003 -0.178719 
-2.614873 -4.787909 -0.211324 
-2.756608 -4.856332 -0.252273 
3.199263 0.610483 -0.215364 
4.259016 2.432344 -0.145275 
2.339358 0.758359 -0.192837 
3.000552 1.151431 -0.236012 
-2.850721 -1.401114 0.089876 
-2.190061 -0.209078 0.026562 
-3.517225 1.857950 0.072657 
-2.443630 5.174343 -0.047868 
-2.563993 5.251819 -0.075627 
-2.885094 5.495459 -0.089159 
-5.448566 2.302144 -0.177881 
-5.270248 2.751147 -0.220325 
-4.188381 3.881820 -0.289909 
4.306277 -1.950991 5.545499 
-0.183872 -6.684052 0.091938 
0.979585 -3.959865 0.271251 
1.209862 -2.928359 0.264178 
5.085403 0.141172 0.001627 
-1.560970 -5.757717 -0.200759 
-1.931224 -5.777491 -0.193700 
1.287420 0.547140 -0.802816 
-0.827867 -4.469781 -0.222118 
-1.339675 -2.179272 0.182387 
-1.001402 -4.551101 -0.233458 
2.662101 -0.287390 -0.163604 
5.062839 2.546515 -0.091800 
2.686464 0.540003 -0.178086 
3.540014 1.341091 -0.202266 
-0.926642 -0.233191 0.018842 
-0.926642 -0.233191 0.018842 
-2.231594 -0.912469 0.041354 
-1.363443 0.612932 0.030355 
-3.557465 1.162549 0.113039 
-3.258543 2.062066 0.091190 
-5.514803 2.526362 -0.183408 
-4.950689 3.101789 -0.243160 
-4.005266 4.084128 -0.319418 
1.308487 -3.606970 0.264844 
1.329013 -2.251804 0.268244 
0.789651 -1.633117 0.215300 
-1.132991 -4.897302 -0.236254 
-3.338311 -5.387426 -0.188456 
3.681010 0.933640 -0.191931 
-2.111427 -1.709725 0.109474 
3.212827 1.120752 -0.244836 
-2.007194 -1.302047 0.073287 
-2.322217 -1.224478 0.065128 
-3.176388 -1.114592 0.076112 
-3.475217 -1.153581 0.122935 
-3.258525 1.200851 0.126406 
-1.076114 3.801104 0.174195 
-0.964572 4.083691 0.132405 
-1.344854 4.030171 0.132605 
-1.398588 4.622796 0.101738 
-2.288291 4.189849 0.132588 
-1.825995 5.009449 0.055497 
-5.108034 2.368282 -0.202265 
1.538856 4.577636 4.584770 
1.403509 -4.161324 0.279135 
0.784246 -5.159526 0.156383 
5.007510 -1.272950 0.180465 
5.981267 1.211783 0.120229 
5.811437 1.536012 -0.008875 
4.552430 1.086876 -0.120183 
4.322103 1.555789 -0.138684 
4.322103 1.555789 -0.138684 
2.835704 0.146159 -0.192387 
-2.537305 -1.409894 0.095058 
-2.198973 -0.543540 0.026419 
-1.622370 0.402779 0.018239 
-0.332134 0.197837 -7.902363 
3.586131 -0.812987 0.054130 
4.677099 0.653486 -0.091703 
0.012018 -1.325507 0.126702 
5.119284 -0.013230 0.027429 
3.836414 -0.564971 -0.002845 
3.361286 0.072312 -0.051129 
-2.805639 5.524176 -0.277268 
-0.236882 0.072119 -0.035182 
0.195890 -6.572729 0.084903 
0.542272 -5.438891 0.092618 
1.012578 -5.033887 0.222631 
-0.112850 -5.736026 0.018810 
4.399130 -1.024438 -4.552419 
0.336508 -5.001065 0.099014 
0.999099 -4.284171 0.208701 
-0.122217 -2.745933 4.599137 
-1.666317 -5.907773 -0.172891 
-0.632889 -5.365971 -0.164722 
0.500608 -3.982546 0.218068 
1.088520 -3.199482 0.245702 
-1.831756 -5.043115 -0.253670 
0.942851 -2.719290 0.260789 
-1.833084 -4.914621 -0.258036 
-2.079347 -5.020186 -0.238133 
-1.005660 -4.331527 -0.228192 
-1.428700 -4.561643 -0.265013 
-2.164772 -4.865162 -0.255370 
0.848654 -2.419945 0.280815 
0.666808 -2.476332 0.296264 
-1.704075 -4.471518 -0.260857 
1.747931 -1.872538 0.297347 
3.935787 -1.015422 0.071137 
5.891861 0.145813 0.088555 
-1.491935 -4.076095 -0.256212 
1.208781 -1.885468 0.239282 
2.122178 -1.283554 0.289485 
1.696413 -1.442140 0.251661 
-2.970566 -4.531574 -0.247364 
-2.970566 -4.531574 -0.247364 
-2.725315 -4.327770 -0.248175 
-2.725315 -4.327770 -0.248175 
-3.127363 -4.239240 -0.215852 
1.399008 -1.144383 0.161887 
0.721599 -1.335633 0.170613 
0.721599 -1.335633 0.170613 
-3.237547 -3.950776 -0.212923 
4.931528 0.832437 -0.084002 
4.641368 0.920086 -0.111708 
4.641368 0.920086 -0.111708 
-2.097274 -2.258076 0.151500 
5.627635 1.686945 -0.029748 
5.856300 2.000117 -0.008652 
5.558113 1.779166 -0.044839 
2.499262 0.144974 -0.175445 
2.499262 0.144974 -0.175445 
2.499262 0.144974 -0.175445 
-3.470040 -2.456399 0.221949 
-2.409993 -1.994052 0.142049 
5.492263 2.101354 -0.036948 
1.532441 1.811325 6.967608 
4.491126 1.717365 -0.125861 
4.529253 1.807740 -0.128727 
4.529253 1.807740 -0.128727 
4.370070 1.719937 -0.130844 
-1.322100 -0.920913 0.040745 
3.796734 1.609280 -0.165016 
-1.938967 -1.135915 0.053266 
2.212519 0.790736 -0.185974 
1.976847 0.731330 -0.096658 
4.363253 2.235209 -0.125412 
5.356191 2.956077 -0.066651 
2.113574 1.092375 -0.192497 
-0.817140 -0.110920 0.004053 
-0.818777 -0.109771 0.000122 
3.185101 1.955386 -0.216636 
-1.995039 -0.511726 0.024965 
-1.687201 -0.330137 0.010803 
-0.914474 0.118931 0.022122 
0.523651 4.172978 5.125949 
3.905157 2.634525 -0.123210 
-0.698477 0.335777 0.037443 
-0.821070 0.298336 0.009991 
4.056332 2.838360 -0.127169 
-0.870019 0.376419 0.008687 
-0.870019 0.376419 0.008687 
-0.553639 -0.208624 -8.202517 
-2.327554 -0.305396 0.040839 
-1.170643 0.354102 0.015610 
-1.849433 0.000993 0.018977 
-2.516502 -0.330639 0.040017 
-2.516502 -0.330639 0.040017 
3.141338 2.526546 -0.138749 
-1.535511 0.183143 0.007207 
-2.255674 -0.166599 0.030920 
3.632029 2.920531 -0.112120 
-2.583395 -0.251366 0.037580 
-3.742946 -0.766848 0.110140 
-0.896235 0.764111 0.027063 
3.121805 2.856901 -0.141943 
-3.780029 -0.557177 0.125356 
-1.595188 0.596542 0.031695 
-1.595188 0.596542 0.031695 
0.935831 2.061872 0.062255 
-0.439491 1.520818 0.053192 
-3.123484 0.210191 0.092903 
-1.905698 0.893976 0.058843 
-0.304181 1.817121 0.062503 
-0.157798 1.916885 0.063823 
-1.623026 1.083080 0.048495 
-0.245492 1.904557 0.062704 
-1.179793 1.389989 0.053830 
-1.894200 1.155958 0.072095 
-0.643602 1.603863 -7.320972 
-2.725088 1.695977 0.172932 
-0.071794 3.357545 0.150952 
-0.300202 3.520612 0.128793 
-3.341976 1.750291 0.098066 
-0.116450 3.749035 0.154382 
-0.577212 3.527979 0.151538 
-1.978918 1.167414 2.934051 
-2.917437 2.384909 0.200141 
-0.616282 4.142761 0.142052 
-0.777199 4.055583 0.134093 
-5.311095 1.962897 -0.169128 
-5.015176 2.165624 -0.203623 
-5.834073 1.844555 -0.126034 
-4.278222 2.767676 -0.261932 
-4.278222 2.767676 -0.261932 
-5.064321 2.449380 -0.214590 
-5.854897 2.278034 -0.131143 
-5.428256 2.502183 -0.200179 
-4.530255 2.940728 -0.243695 
-5.720115 2.410318 -0.157319 
-3.407896 3.628133 -0.262229 
-1.613139 5.217103 0.060743 
-1.563346 5.420203 0.063161 
-4.045826 3.490561 -0.291930 
-4.700578 3.141901 -0.264314 
-4.216197 3.476157 -0.285623 
-4.216197 3.476157 -0.285623 
-5.644205 2.890160 -0.183793 
-3.297695 4.147005 -0.254843 
-5.898270 2.932409 -0.150817 
-5.703543 3.064460 -0.175310 
-3.805505 4.081301 -0.290789 
-4.303888 3.950915 -0.288288 
-5.767997 3.389430 -0.167077 
-5.767997 3.389430 -0.167077 
-5.775788 3.607107 -0.145847 
0.170981 -6.469611 0.071533 
3.834945 -3.466428 -4.073228 
0.018718 -6.133028 0.019560 
0.018718 -6.133028 0.019560 
1.344221 -4.684671 0.278952 
1.153997 -4.508850 0.261317 
0.826210 -4.763853 0.178122 
-1.305387 -5.872110 -0.157970 
0.527318 -4.265213 0.240165 
1.462136 -3.629504 0.281105 
0.542025 -4.107129 0.239246 
1.050800 -3.770151 0.260038 
0.880770 -3.835508 0.246644 
1.105851 -3.480487 0.264610 
1.035001 -3.438159 0.262508 
2.111928 -2.711033 0.334228 
4.537604 -1.452677 0.164483 
-1.683612 -5.146068 -0.243620 
-2.885927 -1.375642 0.785418 
1.799254 -2.509822 0.284269 
5.242627 -0.896221 0.120051 
3.773643 -1.513019 0.155882 
1.065255 -2.667741 0.261363 
1.945754 -2.053507 0.282514 
2.292050 -1.757319 0.327284 
4.217793 -0.917729 0.059864 
-2.122101 -4.697174 -0.260622 
-2.310955 -4.598287 -0.264744 
-1.695622 1.055315 10.515224 
-2.090269 0.047115 -3.718301 
-2.777705 -4.549479 -0.205032 
5.283246 0.117938 0.007114 
2.016223 -1.201948 0.279320 
-2.629816 -4.423777 -0.263463 
5.422866 0.304949 0.011010 
-0.162604 -1.137596 2.822177 
5.838465 0.824104 0.023373 
-0.251108 -2.117794 0.223134 
-2.020709 -3.680192 -0.218272 
-3.035298 -4.142678 -0.232190 
-1.712506 -2.843074 0.171407 
-1.652414 -2.737910 0.208921 
-2.101565 -3.467235 -0.180546 
-2.101565 -3.467235 -0.180546 
-0.979864 -4.002851 -0.365753 
-3.784799 -4.207711 -0.159240 
1.062586 2.532261 11.541719 
4.187145 0.166971 -0.102327 
-0.231813 -1.730233 0.175365 
6.342886 1.783938 0.094605 
5.819466 1.356462 -0.000551 
1.165622 -0.904813 0.147942 
-1.855811 -2.377853 0.170055 
0.581877 -1.085305 0.128860 
-0.158945 -2.876156 -3.587623 
5.905082 2.098741 0.029779 
4.406337 1.244466 -0.168309 
-2.957348 -2.172716 0.157737 
0.866418 -1.298829 -2.246711 
-2.266135 -1.798726 0.110659 
5.524052 2.192836 -0.026900 
5.323126 2.199372 -0.066852 
5.613920 2.420912 -0.029790 
6.055705 2.903437 0.076958 
4.677070 1.907226 -0.106958 
-3.249216 -1.961109 0.150348 
3.469519 1.198518 -0.227815 
4.393950 1.877016 -0.131588 
4.084968 1.689417 -0.144215 
4.256096 1.853256 -0.110456 
-2.158423 -1.186815 0.061781 
3.709202 1.686061 -0.161008 
4.492528 2.283626 -0.113509 
4.249632 2.178144 -0.131213 
5.428056 3.142537 -0.028267 
-1.986412 -0.720283 0.036799 
-3.577228 -0.704026 0.469025 
2.487033 1.409689 -0.216220 
3.517800 2.168049 -0.127237 
3.517800 2.168049 -0.127237 
5.143029 3.270243 -0.035401 
4.011293 2.629174 -0.128102 
4.011293 2.629174 -0.128102 
4.631097 3.103165 -0.071635 
-2.634911 -0.605297 0.049740 
-2.556836 -0.504188 0.043756 
-1.818493 -0.123250 -0.017358 
-0.614257 0.546032 0.025599 
-3.799912 -0.971533 0.129294 
-3.591675 -0.860793 0.108185 
-0.175377 1.258343 0.026279 
-0.972841 0.930123 0.024974 
0.419352 1.988165 0.069385 
-3.818726 -0.112099 0.139161 
-1.041114 1.431523 0.039008 
0.676701 0.218362 -2.249368 
-1.373879 1.373539 0.044300 
-3.420123 0.331021 0.114630 
-3.333465 2.385427 2.746234 
-1.770853 1.288386 0.073912 
-1.888190 1.262541 0.071375 
-1.888190 1.262541 0.071375 
-3.000449 2.436547 2.595896 
-2.336017 1.465552 0.138173 
-3.095189 1.917915 0.135540 
-0.277356 3.877801 0.148778 
-4.895619 1.814342 -0.158388 
-2.000304 4.058593 0.139855 
-1.764132 4.212060 0.107373 
-2.062787 4.144909 0.170574 
-2.169388 4.587910 0.098754 
-6.321178 2.412133 -0.062392 
-6.576188 2.345024 -0.026392 
-4.308220 3.394382 -0.282717 
-6.044387 2.708427 -0.121485 
-2.303895 5.376463 -0.046207 
-6.144695 3.150354 -0.104100 
-4.120481 4.337233 -0.284433 
-4.241378 4.280615 -0.276007 
-2.886351 5.498755 -0.092311 
-4.529284 4.512818 -0.257432 
-4.529284 4.512818 -0.257432 
-0.014453 -6.722805 0.112051 
0.058093 -6.374425 0.047392 
0.535721 -5.513443 0.103625 
0.639713 -5.021530 0.142782 
-1.317355 -6.008607 -0.157153 
-1.146195 -5.708043 -0.186411 
2.085131 -1.903810 -8.186180 
-0.410397 -5.072228 -0.163626 
1.651772 -3.289333 0.285694 
1.810706 -3.030185 0.298694 
4.144384 -1.565218 0.194981 
1.516746 -2.709731 0.275852 
1.381901 -2.727390 0.270094 
1.381901 -2.727390 0.270094 
-2.739986 -5.507261 -0.217438 
2.474327 -1.680602 0.401784 
-1.419340 -4.272721 -0.242656 
-2.428391 -4.550661 -0.262296 
-1.897055 -4.252282 -0.261617 
-1.631809 -3.978874 -0.245413 
-2.800694 -4.568835 -0.258189 
1.809006 -1.159429 0.236665 
1.214797 0.701539 11.972440 
-2.541917 -3.766619 -0.216377 
2.580618 -0.737560 -0.016867 
5.767707 1.153421 -0.001297 
-1.666842 -2.487333 0.201802 
3.376966 -0.177238 -0.110640 
4.100734 0.253202 -0.105021 
1.609949 0.144680 9.930485 
3.117827 -0.094584 -0.160115 
6.318866 2.084344 0.091997 
-2.114840 -2.231141 0.146470 
0.087744 -1.106896 0.085565 
5.998200 1.980540 0.015627 
4.412399 0.938834 -0.125840 
2.622437 0.166064 -0.193999 
3.267252 0.833986 -0.233545 
4.062294 1.427572 -0.140335 
2.154266 0.423606 -0.160650 
3.703179 1.239456 -0.205565 
-1.750773 -1.318637 0.076221 
2.101318 0.561206 -0.159811 
3.267658 1.373919 -0.230075 
-2.850721 -1.401114 0.089876 
1.609323 -0.232949 -10.930960 
3.626067 1.802349 -0.183056 
3.033276 1.465143 -0.216645 
-3.255071 -1.438858 0.110361 
2.182695 1.266905 -0.203949 
-2.874340 -0.987922 0.016841 
4.859416 3.106935 -0.083895 
-2.072810 -2.449699 3.988227 
5.378172 3.784558 0.076430 
3.793172 2.742381 -0.116986 
3.793172 2.742381 -0.116986 
-1.814890 -0.121831 -0.008937 
-1.814890 -0.121831 -0.008937 
-0.830151 0.506995 0.014696 
4.113383 3.112736 -0.137981 
-1.457914 0.320393 0.022954 
-1.181706 0.537599 0.018579 
4.019976 3.296607 -0.062620 
0.711494 1.789698 0.045878 
0.193222 1.789792 0.054594 
0.193222 1.789792 0.054594 
-0.099323 1.607904 0.049364 
-3.504899 0.118414 0.098880 
-0.062730 2.121666 0.098991 
-1.225004 1.541429 0.088174 
-1.225004 1.541429 0.088174 
-3.198949 0.903863 0.119911 
-2.492273 1.717148 0.131245 
0.280770 3.489639 0.139671 
-0.494988 3.281526 0.163011 
-0.672950 3.373673 0.152920 
-1.777743 -0.742231 4.139459 
-2.579682 1.206010 2.885319 
-0.368310 4.481861 0.145461 
-0.547200 4.431511 0.153320 
-1.928474 3.969507 0.156189 
-5.952020 1.775109 -0.093287 
-0.938570 1.540147 -8.945157 
-3.885400 3.032805 -0.260345 
-6.403969 1.987656 -0.037666 
-6.403969 1.987656 -0.037666 
-6.434178 2.324759 -0.049857 
-2.668540 4.789530 0.021234 
-2.151306 5.055153 -0.008819 
-5.928592 2.790548 -0.152565 
-5.928592 2.790548 -0.152565 
-2.304276 5.377330 -0.047155 
-5.789647 3.209882 -0.156869 
-5.611177 3.383632 -0.191116 
-4.573190 3.987545 -0.270724 
-2.389626 5.634053 -0.055950 
-2.389626 5.634053 -0.055950 
-5.625511 3.622088 -0.163400 
-4.715244 4.323987 -0.239823 
-4.660386 4.563683 -0.252438 
-2.966700 6.053093 -0.109482 
-3.222737 6.180267 -0.114427 
0.990372 -5.526068 0.181705 
0.557750 -5.203603 0.133227 
-0.805105 -4.893457 -0.210560 
-2.115120 -5.276763 -0.238794 
4.514279 -1.194337 0.129633 
-3.579138 -5.373468 -0.170188 
2.174180 -1.524581 0.306433 
-1.794958 -4.105588 -0.267244 
-1.207331 -2.976213 0.247967 
-2.876505 -4.302900 -0.245581 
-3.849802 -4.610197 -0.166659 
-3.249392 -4.233298 -0.219265 
-2.775661 -3.926693 -0.209083 
3.703170 1.240444 -0.205643 
-0.893608 -0.470508 0.028337 
5.268237 2.927121 -0.045470 
4.573983 2.455564 -0.111381 
3.182843 1.538810 -0.240191 
2.256401 1.034826 -0.193117 
2.005706 1.159604 -0.197252 
-4.131457 -1.516921 0.210897 
2.435412 1.747853 -0.226679 
2.435412 1.747853 -0.226679 
3.563445 2.530800 -0.148127 
-1.945910 -0.233254 0.017094 
3.648832 2.690025 -0.118571 
3.155667 2.431934 -0.146533 
5.660863 3.857412 -0.185872 
3.281925 2.610877 -0.141986 
-0.843399 0.942504 0.021879 
-3.461281 -0.415508 0.085847 
-0.806536 1.143250 0.033080 
-2.485359 0.401380 0.050033 
-1.171109 1.204764 0.035197 
0.013138 1.934139 0.063187 
-3.460645 0.318479 0.113065 
-1.868798 1.475647 0.096217 
-3.642880 0.837733 0.155732 
-2.483143 1.720161 0.152622 
-0.498087 3.280200 0.155771 
-0.204952 4.404387 0.155074 
-0.204952 4.404387 0.155074 
-1.623374 3.708769 0.161040 
-1.249160 4.236344 0.131063 
-2.406860 4.750669 0.060507 
-5.819525 2.515441 -0.137856 
-5.819525 2.515441 -0.137856 
-5.266904 3.110043 -0.213123 
-5.834997 2.963028 -0.149077 
-5.790820 3.210882 -0.159694 
-5.622572 3.623275 -0.156531 
-3.878036 4.813805 -0.227224 
-4.661269 4.563537 -0.254515 
-2.809926 6.033543 -0.131516 
0.053193 -5.862736 0.023514 
-1.840283 -0.446693 7.333653 
0.857978 -3.522015 0.270478 
0.931849 -3.270358 0.293941 
0.931849 -3.270358 0.293941 
0.739327 -3.093398 0.267703 
0.959227 -2.891559 0.273927 
0.664680 -2.870955 0.272873 
0.877866 -2.653277 0.280341 
1.120776 -2.252322 0.238744 
-1.876438 -4.467793 -0.278834 
-3.425731 -5.024756 -0.202659 
-3.425731 -5.024756 -0.202659 
6.168116 0.937554 0.083923 
-2.117504 -3.897428 -0.236304 
-4.022554 -4.513758 -0.139146 
-3.598566 -4.196484 -0.186572 
0.220163 -1.408041 -1.537183 
-2.985446 -3.766489 -0.214076 
-1.885736 -2.296209 0.156403 
-2.124076 -1.965051 0.140815 
4.800239 1.496891 -0.116355 
3.512869 1.073828 -0.176545 
2.045138 0.877986 -0.128973 
4.059998 2.423930 -0.105987 
-2.120528 -0.666133 0.025963 
2.695690 1.832549 -0.209947 
-0.547028 0.388234 0.004043 
2.809397 2.055880 -0.218114 
-2.559577 -0.146075 0.039128 
-0.326190 1.194165 0.036008 
0.236155 2.063942 0.038697 
-3.137501 0.519035 0.090865 
-1.661876 1.414756 0.077642 
-2.604856 0.924654 0.106449 
-2.604856 0.924654 0.106449 
0.561220 3.799257 0.151915 
-0.567452 3.661402 0.173195 
-0.414095 4.403676 0.147898 
-0.414095 4.403676 0.147898 
-1.147506 5.255648 0.086514 
-6.146342 2.584225 -0.092706 
-4.099221 3.681475 -0.277534 
-4.099221 3.681475 -0.277534 
0.414996 -5.536508 0.092422 
0.784246 -5.159526 0.156383 
1.436257 -3.340669 0.267965 
2.187854 -1.965461 0.313162 
0.568879 -1.838695 0.218101 
0.367838 -1.725167 0.212301 
3.222581 -0.260350 -0.113459 
-1.673239 -2.150782 0.159233 
0.921649 -0.753275 0.081152 
-1.801297 -1.498725 0.117813 
-3.715611 -2.272297 0.189930 
-2.261257 -1.550049 0.053515 
-3.567977 -2.017690 0.186030 
5.402838 2.762773 -0.050434 
4.843756 2.685598 -0.066305 
0.588301 0.864485 0.024506 
-3.662001 -0.298093 0.090724 
-2.840195 0.150731 0.074820 
0.857472 3.859990 0.048085 
-0.417880 4.066810 0.178748 
0.141090 4.457649 0.112788 
0.197221 1.204886 -10.045894 
-5.742988 2.223084 -0.146317 
-5.108019 2.902530 -0.209140 
-3.857347 3.843005 -0.298818 
-4.395990 4.114884 -0.283283 
-4.957972 3.854644 -0.268946 
-4.957972 3.854644 -0.268946 
1.990299 3.935270 -10.519491 
0.898838 -6.515388 1.195328 
1.101364 -4.216048 0.249911 
1.101364 -4.216048 0.249911 
-1.543735 -5.844307 -0.165466 
-2.324592 -5.390470 -0.234095 
-3.026400 -5.292430 -0.194356 
-1.288101 -4.199436 -0.209994 
-2.126385 -4.396207 -0.286830 
-3.499235 -4.692484 -0.191336 
4.337434 -0.028216 -0.067312 
2.895672 -0.967867 -3.362802 
1.113303 1.091258 0.874402 
1.113303 1.091258 0.874402 
2.393759 0.446031 -0.184253 
-3.725490 -2.263340 0.166106 
4.594387 2.645584 -0.103521 
-1.047548 0.467426 0.007660 
-1.102126 0.859998 0.032649 
-0.621266 1.402493 0.040201 
-0.621266 1.402493 0.040201 
-2.337141 0.646015 0.045748 
-2.018996 0.939790 0.079581 
-0.761004 1.813937 0.087967 
-0.761004 1.813937 0.087967 
-5.078620 1.390485 -0.068220 
-0.764637 5.176693 0.094559 
1.565276 -3.325857 0.320414 
-1.140659 -4.632608 -0.240480 
-2.120083 -4.361671 -0.273921 
-2.507209 -4.049308 -0.213068 
6.069847 1.543311 0.105185 
5.391648 1.668136 -0.062836 
3.391589 0.594430 -0.204788 
5.052329 2.058708 -0.093219 
5.767613 2.967637 0.028487 
-2.692138 -0.248297 0.032389 
1.325390 2.386206 0.049188 
-3.279886 -0.098370 0.125690 
0.396673 4.153902 0.098336 
-5.398515 2.651841 -0.208654 
-4.896531 3.414879 -0.219729 
-1.823268 -6.217554 -0.153932 
-1.934398 -5.340529 -0.204877 
-1.493044 -4.966490 -0.265782 
-3.960742 -5.355243 -0.167235 
-0.518266 1.013051 0.031467 
-2.084793 0.223008 0.040578 
0.512777 3.157698 0.114653 
-4.791085 2.527044 -0.216955 
-3.195989 5.507721 -0.036175 
-1.704028 -0.849476 0.041395 
-0.517801 1.010942 0.032682 
-0.051816 1.633935 -0.046300 
5.131207 0.622226 0.093255 
-3.997052 -1.136330 0.216820 
-2.716294 -4.696679 -0.002914 
