ply
format ascii 1.0
element vertex 590
property float x
property float y
property float z
end_header
-3.873033 -3.624784 0.213323 
3.974476 -1.039647 0.296844 
-4.897250 3.842359 -0.193797 
-2.866023 4.301960 0.243641 
-3.798912 5.433126 0.158335 
-4.897250 3.842359 -0.193797 
1.643232 -1.927923 0.114165 
1.188621 -3.450720 0.129805 
3.514900 -1.953330 -4.071179 
0.713506 -2.017771 -6.070611 
1.942210 -2.557168 0.083763 
1.738708 -2.012629 0.097585 
5.473082 0.313774 0.234449 
5.333643 0.354256 0.263029 
3.747241 0.118786 0.349029 
2.187569 -2.515953 0.048213 
-0.678858 -4.488416 0.184778 
1.984623 -2.250079 0.078137 
0.558496 -0.461311 0.225096 
0.393556 -4.711806 0.087324 
-0.575987 -4.784896 0.165388 
2.092123 -2.693045 0.059896 
-0.220460 -3.534297 0.218811 
4.607936 -0.288411 0.309714 
-0.533384 0.086978 0.355934 
-1.256350 -4.890864 0.256770 
-0.475859 -4.427216 0.164591 
-3.475811 -4.247818 0.166060 
0.523230 -3.224225 0.208606 
1.192141 -2.529175 0.156053 
1.192141 -2.529175 0.156053 
-0.241528 -2.529940 0.215026 
-1.687996 -1.562189 0.181811 
5.346530 -0.653800 0.251125 
0.606024 -0.792965 0.204978 
-1.114261 0.370415 0.372529 
1.129843 -2.137820 0.183529 
0.877612 -2.477432 0.193454 
2.520510 -1.658464 -5.648717 
1.717945 -1.304575 -5.522778 
4.419791 -0.575291 0.305184 
-0.510348 -4.110450 0.211446 
1.453774 -2.347453 0.137793 
5.135896 -0.251828 0.282584 
1.638296 -2.969983 0.098343 
1.853494 -2.640322 0.090754 
-0.498738 -3.534278 0.223993 
0.063560 -3.175555 0.223557 
-2.146786 -2.058547 0.213589 
3.878977 0.237225 -2.154315 
1.807055 -1.899411 -5.810233 
-3.337909 -3.813319 0.230867 
-3.112627 -3.193319 0.251661 
1.168482 -1.280499 -5.555087 
3.563966 -1.370673 0.285356 
3.764647 -1.020592 0.301895 
4.804409 -0.133298 0.291369 
3.104743 -0.022977 0.336763 
3.175761 0.135482 0.341210 
0.041172 0.910144 0.257032 
-4.249900 1.371686 -0.005188 
-0.614122 0.952443 0.325117 
-3.919071 3.544854 0.356906 
4.489108 2.319330 0.229682 
-0.120804 -4.100682 0.192516 
-0.158714 -3.015694 0.230647 
-0.098118 -2.230940 0.237851 
-3.643680 -2.166267 0.182598 
5.537461 0.479035 0.224618 
4.915641 -0.001354 0.290052 
3.597788 -0.504223 0.334823 
3.411833 -0.054966 0.347936 
4.749421 1.066374 0.289541 
4.749421 1.066374 0.289541 
-3.924167 0.300852 0.078611 
-0.420074 0.483379 0.319389 
-2.338393 2.448129 0.377257 
-3.111982 2.000664 0.413065 
-0.633160 -4.650346 0.179953 
-0.243635 -3.997399 0.221228 
0.171294 -3.292560 0.225959 
-2.275898 -1.970138 0.212684 
-0.485912 -2.925125 0.234799 
-3.616384 -3.641086 0.230209 
-1.953029 -3.146859 0.257165 
1.052759 -1.391129 -5.645602 
-1.703373 -2.539696 0.233883 
-1.540154 -1.912330 0.183264 
5.041448 0.311021 0.282891 
-3.722357 -1.732682 0.185118 
-4.330319 -1.245405 0.136176 
-4.274321 -0.330169 -0.703264 
-1.584577 0.436557 0.402444 
6.787811 -0.095910 0.009105 
4.210087 -1.535403 0.272027 
-3.062624 -2.773804 0.252853 
-2.505652 -1.768072 0.198465 
4.173018 -0.354550 0.319522 
3.402851 -0.288819 0.303564 
5.240360 1.117499 0.240444 
3.915845 -0.089139 0.341240 
3.508610 0.261217 0.340936 
3.137584 0.424828 0.344988 
-0.367284 1.010076 0.306596 
-1.169668 1.337112 0.356719 
-1.169668 1.337112 0.356719 
-2.041336 1.649125 0.414488 
-3.169461 3.356781 0.352263 
-0.579914 -3.787587 0.218268 
1.467758 -1.192367 0.087286 
3.573527 -1.108268 0.322264 
-2.376739 -2.461264 0.231479 
3.381739 0.976862 0.333947 
-2.646051 2.362396 -4.298246 
1.389180 -1.839146 0.127339 
5.183485 -0.920643 0.262697 
4.248563 0.098585 0.312900 
4.372247 0.761089 0.315178 
4.372247 0.761089 0.315178 
4.117854 1.569253 0.295675 
-2.185849 -4.034043 0.250819 
0.198203 -2.797299 0.193874 
5.135896 -0.251828 0.282584 
-1.106550 -3.560945 0.255280 
-2.773968 -6.981574 0.228086 
-2.898605 -6.737134 0.241743 
-2.898605 -6.737134 0.241743 
-2.811814 -6.492909 0.239313 
-2.811814 -6.492909 0.239313 
-3.003431 -6.566641 0.270597 
3.722313 -0.705366 0.322611 
3.722313 -0.705366 0.322611 
-2.716570 -1.920679 0.210497 
-0.124544 -3.293992 0.221283 
1.654232 -2.168881 0.112619 
-2.085742 -3.784376 0.256248 
0.296180 -2.123813 0.233953 
1.449873 -0.832900 0.059983 
2.822717 -0.401781 -6.265301 
-1.372010 -2.348014 0.232748 
-0.988446 -2.046153 0.205304 
-3.315227 -2.941340 0.236954 
4.919129 -0.155399 0.288554 
-1.971565 -2.150500 0.223550 
-2.852458 -2.071972 0.210929 
5.109462 0.709172 0.261051 
3.524817 -0.043974 0.344453 
-3.289050 -1.733378 0.190583 
5.079276 1.137384 0.252028 
-3.663166 -1.557922 0.169144 
5.007848 1.379845 0.234611 
4.793355 1.226634 0.273502 
5.029397 2.280799 0.128685 
-3.897944 -0.951383 0.150250 
3.694139 1.597138 0.311860 
-4.054780 0.417395 0.069601 
3.887686 2.633036 0.254047 
-0.150421 1.259628 0.237348 
-0.614122 0.952443 0.325117 
-1.705252 0.976373 0.401615 
-4.440859 1.935022 -0.055247 
-4.440859 1.935022 -0.055247 
-4.693522 2.344268 -0.084491 
-5.050785 3.002575 -0.205172 
-1.579180 2.274992 0.329238 
-2.424430 2.607223 0.375200 
-2.424430 2.607223 0.375200 
-2.321951 3.372031 0.303870 
-3.611229 2.504792 0.401028 
-3.162694 2.770050 0.398317 
-3.722277 2.521500 0.391646 
-1.880834 -2.491075 0.236307 
0.890901 -1.626817 -5.779217 
-3.337909 -3.813319 0.230867 
1.586934 -1.017151 0.071615 
-3.185454 -2.978392 0.243541 
-0.246335 -1.768287 0.223463 
0.621686 -1.099491 0.210768 
-1.504637 -1.799951 0.195579 
5.573955 0.689090 0.223255 
5.573955 0.689090 0.223255 
4.914530 0.224594 0.301875 
5.711609 1.017648 0.192422 
3.411833 -0.054966 0.347936 
3.747241 0.118786 0.349029 
3.036924 0.176588 0.343189 
3.674820 0.773359 0.335641 
2.565613 0.539383 0.342063 
2.898227 1.110946 0.313806 
0.013869 1.146548 0.240845 
-4.128013 0.887695 0.035488 
-4.246698 0.987395 0.023008 
-4.976108 1.991970 -0.073871 
-2.388820 1.371943 0.424293 
-1.896005 1.877127 0.371560 
-1.817177 2.017612 0.367332 
-1.968166 2.141164 0.376046 
-2.646079 2.091219 0.409827 
-2.956351 2.324735 0.402880 
-2.956351 2.324735 0.402880 
-5.115396 4.282692 -0.227437 
1.643232 -1.927923 0.114165 
1.518737 -3.388260 0.097729 
1.493055 -3.183892 0.094550 
5.468390 -1.554108 0.212892 
-4.125007 -4.399301 0.177255 
-3.733028 -4.120902 0.213645 
-3.427586 -4.003846 0.243403 
-4.018790 -3.723306 0.199652 
5.577360 -0.327041 0.236502 
0.410698 -2.038829 0.219770 
-1.554050 -2.786613 0.240066 
6.207072 1.060728 0.090907 
3.345794 -0.846898 0.313787 
-3.643680 -2.166267 0.182598 
-2.908996 -1.727583 0.194477 
4.477181 1.465004 0.285636 
4.477181 1.465004 0.285636 
-3.677102 -0.313597 0.102123 
-4.639837 0.618386 0.037610 
-0.247163 1.409688 0.267791 
-1.584577 0.436557 0.402444 
-1.616108 0.938016 0.400145 
-2.569035 2.289076 0.398045 
-2.530655 3.058347 0.335904 
-3.043924 3.584197 0.346147 
1.117054 -4.032291 0.077574 
1.398340 -3.531714 0.111793 
1.514335 -3.245602 9.309037 
-2.334866 -1.595553 0.191927 
0.678512 -0.335916 0.193555 
5.298110 1.512842 0.202522 
4.386133 1.159495 0.311622 
-4.330319 -1.245405 0.136176 
-3.203878 -0.213444 0.050928 
-0.871764 0.436527 0.356682 
-4.938709 3.619926 -0.203389 
0.660073 -3.809511 0.178936 
-0.783339 -3.941099 0.192553 
1.142865 2.959608 -12.295172 
-2.146162 -2.268216 0.224574 
2.100948 -1.493771 0.034280 
6.721568 0.299599 0.020245 
-1.512198 -3.253659 0.249628 
2.874401 -1.244934 0.168233 
6.093890 0.564366 0.148877 
5.823469 0.770000 0.185305 
5.443146 0.898017 0.232126 
-2.819342 -1.016915 0.143651 
-5.080465 3.358117 -0.189178 
-2.186425 2.224449 0.383421 
-2.760075 2.100239 0.394321 
-2.380304 2.809099 0.357452 
-3.086895 2.964071 0.371531 
4.922868 1.299318 0.254236 
-0.436486 -0.549447 0.305735 
-2.483144 1.944974 0.413703 
-4.050377 -4.076460 0.207704 
-0.808247 -2.874774 0.250656 
-0.808247 -2.874774 0.250656 
-3.379215 -2.442786 0.218857 
0.283684 -0.624727 0.236195 
3.952965 0.324574 0.345113 
-4.339385 0.565658 0.055109 
-0.829126 0.649793 0.347265 
-2.726202 2.925463 0.364553 
-2.924835 3.906534 0.275880 
-2.630181 -4.297554 0.212232 
-1.204064 -2.715339 0.250065 
0.968615 -0.961605 0.155907 
4.909831 0.756288 0.283016 
-3.677180 -1.060703 0.122124 
-0.082939 5.130984 -7.482293 
-5.404232 2.281316 -0.102133 
-4.260568 -0.549859 0.131162 
-2.575119 -3.048782 0.257403 
4.457596 -4.462984 2.394391 
4.175768 -4.334785 3.626412 
1.077390 -4.116420 0.068419 
7.851727 0.530475 -0.786014 
0.167301 -3.150637 -2.701221 
5.871123 -0.641639 0.184890 
-3.208146 -3.845951 0.234308 
-3.208146 -3.845951 0.234308 
5.842350 -0.336151 0.029598 
0.739266 -1.066707 -5.575337 
-4.773440 -2.837838 -1.068432 
-2.985122 -3.494994 0.261407 
-1.682827 -2.874048 2.485269 
0.064449 -1.975108 0.232965 
6.983425 1.323369 -0.119182 
-3.398746 -2.868412 0.235303 
-1.866831 -2.179424 0.212567 
-2.044791 -1.929222 0.210486 
-1.261523 -1.542420 0.165297 
-1.602607 -1.366996 0.162873 
-1.443684 -1.202254 0.143966 
-1.679079 -1.291727 0.177295 
6.362188 2.180628 -0.046239 
-2.083970 -1.062476 0.141628 
-3.340583 -1.594470 0.178639 
3.108041 0.734249 0.342305 
-3.925598 -1.753773 0.171826 
5.014976 1.691133 0.218285 
3.016611 0.764375 0.334108 
-2.434441 -1.270846 -2.207855 
-1.191281 -0.033755 -6.220419 
-1.820738 -0.764415 0.101896 
-1.947212 -1.360365 5.507356 
2.341874 0.896709 0.292159 
1.979239 -0.139254 1.914117 
-4.893176 0.506883 -1.223523 
-3.241448 -0.923296 0.142305 
4.730176 2.086398 0.195397 
4.730176 2.086398 0.195397 
2.059300 1.028139 0.260194 
2.611286 1.226423 0.293790 
3.897706 -0.013061 -3.146996 
4.565608 2.192337 0.200912 
3.913783 1.804279 0.295892 
4.364634 2.105881 0.246392 
2.573455 1.578377 0.262808 
-3.277981 -0.386491 0.104794 
4.891973 2.726897 0.173229 
4.778773 2.690153 0.167791 
2.491273 1.774161 0.252046 
2.236987 1.756526 0.225817 
3.081022 2.096276 0.274291 
-3.300900 1.951238 -1.608286 
4.240378 2.744317 0.237460 
4.312387 2.964558 0.227620 
3.423742 2.586144 0.266577 
-0.592382 1.085116 0.306631 
4.217719 3.184730 0.196247 
4.217719 3.184730 0.196247 
-4.641151 0.035482 0.074075 
-1.796808 1.050141 0.413100 
4.068144 4.141497 0.096582 
4.068144 4.141497 0.096582 
4.144482 4.246917 0.102124 
-5.250501 0.767532 -0.005101 
-2.262620 1.500349 0.414939 
-3.914730 1.474995 -0.029137 
-2.648321 1.627781 0.420199 
-4.727513 1.310933 -0.001239 
-4.058054 1.838271 -0.053408 
-1.731553 2.634863 0.321351 
-4.861835 1.848911 -0.054474 
-4.861835 1.848911 -0.054474 
-1.847050 3.293515 0.257602 
-3.496082 2.653049 0.398051 
0.500722 1.977283 9.263121 
-3.126098 1.806042 4.576811 
-2.463232 3.260552 0.332782 
-5.650159 3.299439 -0.221861 
-5.452283 3.641182 -0.229081 
-2.866023 4.301960 0.243641 
-2.590966 4.560775 0.169949 
-4.254255 3.837843 0.300711 
-5.343211 4.024034 -0.227124 
-5.021316 4.379378 -0.226023 
-5.300994 5.378536 -0.289477 
-3.558448 6.913318 -0.358209 
2.734703 -4.994924 0.162083 
4.582113 -2.715559 -0.446698 
0.129270 1.673351 -12.153109 
1.518737 -3.388260 0.097729 
-0.120804 -4.100682 0.192516 
-0.120804 -4.100682 0.192516 
-4.309292 -1.857115 -2.885621 
-1.281700 -4.038817 0.226750 
-1.945085 -1.257812 -0.330359 
2.114392 -2.245043 0.048058 
-3.868101 -4.585915 0.146804 
1.713900 -1.528579 -5.646950 
5.678542 -0.749006 0.204866 
1.654232 -2.168881 0.112619 
-0.661087 -3.165548 0.233757 
1.738708 -2.012629 0.097585 
5.744800 -0.445129 0.209801 
-3.704058 -3.786960 0.216445 
-3.873033 -3.624784 0.213323 
3.936503 -0.730903 0.312017 
2.729117 -0.896778 0.273106 
0.294371 -1.740476 0.231381 
-1.152157 -2.257346 0.225247 
6.434752 1.369860 0.064874 
0.125655 -1.150553 0.252162 
-1.452526 -1.597937 0.184492 
5.079276 1.137384 0.252028 
5.527988 1.862193 0.150748 
5.098145 1.813213 0.193096 
5.098145 1.813213 0.193096 
-2.341952 -0.794365 0.112660 
-4.297571 -1.451720 0.166842 
-2.743559 -0.569145 0.053964 
2.844649 1.503978 0.292259 
-4.705667 -1.155895 0.105510 
2.972816 1.583242 0.289198 
3.655688 1.986597 0.293612 
0.353430 0.822183 0.226851 
-0.918529 0.234369 0.361933 
-0.918529 0.234369 0.361933 
2.359543 1.722893 0.230064 
-4.538396 -0.565883 0.075297 
-0.061911 0.995244 0.256118 
5.292441 2.281431 3.837676 
4.423033 3.173541 0.181246 
3.313962 2.710726 0.251820 
4.537464 3.928046 0.115864 
4.257707 3.802586 0.122723 
-1.907232 1.115548 0.426805 
-5.113451 0.579111 0.007332 
-0.997940 1.930629 0.293279 
-4.818381 0.855419 0.022301 
-4.818381 0.855419 0.022301 
3.071830 4.009619 0.138333 
-4.390696 1.644008 -0.025506 
-4.822813 2.513321 -0.107123 
-3.072735 2.724742 0.386240 
-3.072735 2.724742 0.386240 
-3.393585 2.607779 0.393660 
-1.985315 3.420378 0.256485 
-2.321951 3.372031 0.303870 
-5.431593 3.043049 -0.182085 
-5.453452 3.889998 -0.226425 
-2.860312 4.590188 0.207164 
-3.210565 4.468967 0.251777 
-3.210565 4.468967 0.251777 
-5.131335 4.453583 -0.226532 
-5.256937 4.470383 -0.231105 
-5.536963 4.480512 -0.259795 
-3.516728 5.768604 0.028091 
6.991330 -1.080991 0.067721 
-1.008885 -4.246341 0.221205 
-0.514005 -1.603092 -2.933110 
5.593599 -1.373175 0.202526 
6.240094 -0.994735 0.105738 
0.519691 -2.107712 -6.173005 
4.210087 -1.535403 0.272027 
6.842595 0.076181 -0.033287 
-0.303992 -2.878131 0.234809 
5.113806 0.150382 -5.931392 
1.714054 -0.901789 0.033859 
1.301287 -0.835115 0.085906 
6.976314 2.046322 -0.355716 
0.171169 -1.289277 0.235508 
1.255605 -0.606968 0.058301 
-3.126826 -2.396785 0.229189 
1.129284 -0.485440 0.132128 
5.929140 1.551551 0.135774 
0.558496 -0.461311 0.225096 
-2.657464 -1.271148 0.143282 
-2.657464 -1.271148 0.143282 
2.192452 0.616725 0.273405 
4.895880 1.876269 0.204143 
-0.932156 -0.360881 0.321451 
2.705236 1.462617 0.292722 
4.588269 2.346532 0.208085 
-0.406998 0.662324 0.303995 
0.179301 1.051758 0.221254 
-3.521439 -0.156051 0.093312 
-4.624728 -0.311636 0.085040 
-0.429205 1.133440 0.304702 
-1.592131 0.630298 0.397806 
4.854994 3.599161 0.122323 
-0.693988 1.820883 0.264163 
-0.855252 1.903541 0.284018 
-1.823310 2.247255 0.354196 
-4.528051 2.280887 -0.126831 
-2.730471 2.430895 0.390397 
-4.892119 2.346743 -0.105856 
-1.093019 2.577024 5.138374 
-4.134343 3.295661 0.353893 
-3.265288 4.684210 0.223764 
-4.408036 4.236492 0.255543 
-3.164747 5.205268 0.137212 
-3.341579 5.247617 0.065951 
-3.985365 5.364724 0.165288 
-3.511224 5.766918 0.015228 
3.447428 -4.292034 -1.186619 
-1.848154 0.457059 -10.194441 
-3.324572 -3.758618 -1.718405 
6.239534 -0.993477 0.107421 
4.383501 -1.527459 0.268235 
-2.410678 -3.913363 0.165830 
5.670185 -0.739661 0.226728 
4.067758 -1.313493 0.283249 
6.585912 -0.054545 0.062048 
-4.185123 -4.163678 0.163002 
-1.776341 -3.297771 0.249913 
1.254239 -1.139624 0.114123 
0.811548 -1.395548 0.181973 
3.233742 -0.442977 0.320573 
6.404647 1.156905 0.059494 
-2.382731 -2.325894 0.228681 
2.861265 -0.269718 0.307806 
-1.323723 -1.655929 0.189584 
6.195274 1.346601 0.101702 
1.132938 -0.484031 0.124457 
-1.304160 -1.355210 0.169833 
-1.871432 -1.222392 0.177602 
-0.229116 -0.542286 0.284975 
-3.524494 -0.149619 0.102341 
2.832979 2.780482 0.232018 
-0.324384 1.640759 0.233898 
-1.616108 0.938016 0.400145 
-5.303761 0.448378 -0.052024 
-4.009777 1.107041 0.008633 
-0.744585 1.609809 7.416303 
-2.730520 2.431636 0.390759 
-2.388696 3.667732 0.277665 
-2.436271 4.011992 0.254406 
-3.308957 4.896742 0.186557 
-2.417471 6.193995 -0.349286 
-1.224244 -4.645040 0.190458 
1.158065 -1.578182 -5.722862 
4.607936 -0.288411 0.309714 
-3.952269 -3.302491 0.207083 
-3.952269 -3.302491 0.207083 
3.228991 -0.425668 0.337128 
-1.642246 -1.136757 0.142899 
-2.567880 -0.753781 0.102620 
4.452236 1.888701 0.252974 
5.080842 2.517043 0.148965 
3.987785 2.155437 0.234531 
3.298574 2.048844 0.280741 
3.125490 2.603845 0.230336 
-4.329136 0.235031 0.072980 
4.093218 3.624971 0.140064 
-1.385273 2.222684 0.320748 
-2.643061 2.673911 0.383568 
-2.643061 2.673911 0.383568 
-2.778715 3.416272 0.316335 
-4.964415 4.111287 -0.214297 
-2.936131 5.179708 0.143474 
-3.647543 4.831949 0.239252 
1.819415 -3.151228 0.037036 
-0.510348 -4.110450 0.211446 
2.067231 -1.839925 0.069136 
-2.775923 -2.652856 0.230610 
-0.932372 -1.839583 0.207377 
-3.757569 -2.507142 0.193387 
5.546023 1.297322 0.214590 
5.779973 1.792876 0.030594 
4.024207 0.830034 0.316462 
-2.006475 -0.780904 0.100927 
2.458484 1.112566 0.287369 
0.721817 0.696180 0.119306 
-4.085577 -1.088100 0.160543 
4.816822 2.453609 0.179306 
4.176759 2.419129 0.233898 
2.891701 2.058448 0.235575 
3.430896 2.366296 0.213270 
-2.032952 1.214672 0.426449 
-4.523060 1.023566 -0.003988 
-5.248121 1.372570 -0.068251 
-4.918400 2.694361 -0.136201 
-4.832506 3.185127 -0.180928 
-4.832506 3.185127 -0.180928 
-5.148386 3.768419 -0.192814 
0.146820 -3.714326 0.208235 
6.436449 0.718100 0.066842 
3.706950 -0.582415 0.275329 
-2.380886 -2.478969 0.234644 
-4.023505 -2.999318 0.232218 
-4.023505 -2.999318 0.232218 
6.041580 0.999723 0.116872 
3.698120 1.870905 0.307725 
-0.072682 0.599664 0.291408 
4.693093 3.881203 3.539336 
-3.624137 -3.032204 0.197699 
6.207818 1.521114 0.090632 
2.791724 0.162493 0.309135 
3.117697 1.505243 0.284367 
-3.871738 -4.639619 0.342912 
1.876052 -1.328066 0.109095 
0.663246 2.381688 -1.593971 
-3.088410 0.982087 -2.627962 
-0.609947 -2.139470 0.228450 
-5.404232 2.281316 -0.102133 
-5.429656 3.552655 -0.264551 
-4.455598 1.817984 -0.114493 
-2.879503 -6.533645 0.114625 
-2.325090 -4.240020 0.216259 
-3.638008 6.067055 -0.585071 
2.793028 0.078947 -1.625418 
2.793028 0.078947 -1.625418 
1.305490 -0.349449 1.546674 
1.305490 -0.349449 1.546674 
