ply
format ascii 1.0
element vertex 761
property float x
property float y
property float z
end_header
-0.577999 -1.912211 -0.149833 
-0.122433 -2.255283 -0.185112 
-0.122433 -2.255283 -0.185112 
2.974002 -2.886978 -0.247389 
1.178067 0.859564 -0.439413 
-0.148719 -5.219033 0.382377 
-2.455613 0.473447 2.965609 
0.945637 -3.231148 -0.112006 
0.011587 -6.146939 0.581581 
-0.325989 -5.277128 0.438164 
-5.346445 -1.424598 -0.083354 
-4.991568 -1.886384 -0.094444 
3.436097 -3.100173 -0.183545 
0.475338 -7.116856 0.852248 
2.326152 -1.960296 -0.473660 
-2.611098 0.590641 3.225478 
-0.490366 -2.511827 -0.022540 
-2.768555 1.809809 -0.528718 
-0.485160 -2.147033 -0.139053 
0.541531 -6.781230 0.687381 
-4.611597 0.523704 -0.496865 
3.174691 5.964530 1.552955 
0.077817 -4.493153 0.216977 
0.322850 -4.197513 0.149291 
-0.404273 -3.339423 0.141214 
1.453269 -1.857292 3.182289 
-5.473793 -1.023036 -0.100548 
1.649068 -2.334830 -0.397658 
-0.313120 -1.148440 -0.304402 
-3.865532 -1.444776 -0.422429 
0.411056 -1.204882 -0.413529 
2.463920 -1.636612 -0.522638 
-3.876961 -1.091269 -0.498862 
0.694714 -6.164943 0.498776 
-2.350499 0.494382 7.343683 
0.338158 -2.938864 -0.128047 
0.071322 -2.737836 -0.133214 
0.071322 -2.737836 -0.133214 
0.373537 -2.493188 -0.229697 
2.617152 -1.589908 -0.525496 
-3.270984 -1.043902 -0.520884 
-4.309217 -0.605781 -0.507463 
-4.738481 0.037370 -0.487192 
-4.620124 0.162085 -0.524451 
-2.420803 -0.550299 -0.572760 
-0.104851 -2.953862 6.771469 
0.130569 -5.929353 0.499552 
2.629424 -1.853034 5.109423 
-0.316842 -4.140376 0.224141 
-0.316842 -4.140376 0.224141 
0.166195 -4.306907 0.165619 
-1.056026 1.374744 6.966179 
-4.035571 0.401853 3.571045 
3.436097 -3.100173 -0.183545 
0.309426 -2.668463 -0.178358 
-0.884076 -1.522489 -0.158632 
4.084265 -2.372653 -0.342992 
-1.219764 1.975173 5.906415 
-3.102556 -0.830670 -0.554124 
-3.102556 -0.830670 -0.554124 
-4.170169 -0.464110 -0.563876 
0.797241 -6.070763 0.492656 
-0.427698 -3.088374 0.096588 
-0.485160 -2.147033 -0.139053 
-0.290473 -2.279093 -0.138045 
-4.832503 -1.799589 -0.126784 
4.071778 -2.630914 -0.285548 
-0.540202 -1.573744 -0.228136 
3.105396 -2.671925 -0.307150 
0.295382 -1.658377 -0.334039 
-2.689761 -1.732767 -0.373796 
1.107279 -3.262325 -0.082327 
-1.312226 -1.410726 -0.156064 
0.571833 -2.261303 -0.306824 
-4.246321 -1.557064 -0.322902 
1.757291 -2.185758 -0.412174 
-4.855600 -0.780826 -0.350015 
-4.366338 -1.164297 -0.396905 
-2.905847 -1.064449 -0.527879 
0.072049 -5.411097 0.343553 
-7.143794 -0.494122 0.680956 
-4.976430 -1.263637 -0.237064 
-3.231093 -1.269304 -0.502647 
2.095765 -2.709176 -0.303260 
0.893808 -2.651586 -0.251472 
3.174691 5.964530 1.552955 
-4.139258 0.491943 -0.620476 
0.077817 -4.493153 0.216977 
1.799666 7.222411 0.651796 
-5.571533 -1.526110 0.031573 
-5.454492 -1.473880 -0.020557 
0.460221 -2.011364 0.468290 
-5.551752 -0.107705 -0.181009 
-0.195123 -1.438628 -0.304401 
-4.050062 -1.502193 -0.375345 
3.827730 -1.674328 -0.470906 
3.581559 -1.695252 -0.485317 
3.581559 -1.695252 -0.485317 
-0.932115 -0.734924 -0.242601 
2.775833 -1.007661 -0.565003 
-2.995523 -0.925243 -0.548547 
-4.102869 0.093112 -0.625110 
2.527633 -1.847471 4.597474 
2.527633 -1.847471 4.597474 
2.983755 -1.776597 -0.506449 
0.512260 -4.302243 0.158842 
0.678663 -1.635256 -0.405330 
0.411056 -1.204882 -0.413529 
0.101014 -0.925131 -0.383312 
0.187567 -0.771590 -0.390171 
-0.198325 0.956716 -0.236940 
1.206739 -0.748779 -0.526462 
0.727960 -0.206594 -0.476938 
-2.949614 -0.644044 -0.588951 
-5.361383 0.734050 -0.286267 
-4.475997 0.176529 -0.549913 
-0.182339 -4.693960 0.276449 
-0.124778 -4.038887 0.179988 
1.543443 -2.968751 -0.234035 
0.309426 -2.668463 -0.178358 
1.684942 -2.799990 -0.293066 
1.399158 -0.913474 -0.525231 
2.833976 -0.585910 -0.585456 
0.855151 0.026722 -0.472022 
-4.696408 0.392383 -0.488599 
0.858391 -5.537351 0.388620 
0.349635 -5.260844 0.320854 
-0.352013 -4.328427 0.269733 
-7.386037 -0.905710 0.805262 
1.102567 -2.439747 -0.325849 
-4.569340 -1.630547 -0.244367 
4.382385 -1.502065 -0.472978 
4.578137 -1.393615 -0.446974 
-3.532352 -1.418694 -0.451880 
2.136156 -1.246035 -0.550218 
0.644968 -0.759156 -0.453104 
3.035138 -0.971429 -0.569551 
-4.648200 -0.327940 -0.507185 
-3.577015 -0.186423 -0.622228 
-2.679370 0.068194 -0.642031 
-0.070820 -4.281779 0.197918 
3.960604 -2.121696 -0.413641 
1.445858 -1.935976 -0.446983 
3.243005 -1.595387 -0.525785 
3.684398 -0.845125 -0.536988 
-3.817402 -0.387467 -0.631889 
0.110105 -4.011778 0.149109 
0.110105 -4.011778 0.149109 
-1.837023 -1.434621 -0.347526 
-0.124927 -0.658738 -0.356314 
1.654911 -1.221846 -0.529238 
3.086331 -1.308501 -0.550935 
1.670063 -0.817570 -0.544782 
-3.453471 -0.443659 -0.612197 
-3.137413 -0.552240 -0.644227 
-3.998829 -0.104015 -0.619351 
-3.626583 0.278001 -0.666856 
0.487251 -5.028895 0.359517 
-0.442249 -3.502672 0.206233 
0.721081 -1.369067 -0.456376 
1.220847 -1.300359 -0.507943 
-0.057472 -1.286701 -0.293656 
-5.281760 -0.297222 -0.256283 
-1.267050 -0.785797 8.234435 
1.203731 -6.648670 0.664847 
-0.316262 -2.340411 8.784853 
1.195718 -5.926673 0.482829 
-6.599024 -0.689608 0.356491 
0.460221 -2.011364 0.468290 
3.827730 -1.674328 -0.470906 
-4.844452 -1.400965 -0.228465 
-4.793058 -1.296750 -0.265212 
2.356303 -1.473042 -0.530403 
1.725563 -1.439716 -0.516400 
0.442720 -0.974013 0.642366 
0.442720 -0.974013 0.642366 
-1.311202 -0.809716 -0.298336 
1.428729 -1.109314 -0.527755 
0.337463 -0.725296 -0.416453 
0.943447 -0.615223 -0.498724 
3.311685 -0.995697 -0.542570 
2.676602 -0.510347 -0.583254 
0.350054 0.040368 -0.418465 
-4.654689 -0.198052 -0.501208 
-0.179303 0.283447 -0.323752 
-0.059123 0.270325 -0.349729 
3.971989 0.351056 -0.488613 
-0.241505 0.824528 -0.246042 
1.557231 0.448335 -0.500325 
-4.816725 0.534785 -0.453972 
0.774527 1.840886 0.760240 
0.545637 2.205873 -0.155458 
0.443211 2.353457 -0.125529 
-4.627265 2.073389 -0.328940 
-4.627265 2.073389 -0.328940 
-4.507987 2.203038 -0.316439 
1.242791 3.022775 -0.058969 
-2.596246 2.209734 -0.447824 
1.154250 3.127444 -0.062921 
-3.054794 2.853111 -0.337397 
0.320273 3.770189 0.066298 
1.735351 4.559636 0.079275 
0.306303 -8.218173 1.825318 
-1.112520 -3.308928 0.441252 
4.121426 -2.841790 -0.236797 
0.643825 -2.453927 -0.278142 
0.449732 -2.000438 0.630111 
-1.923283 -0.929248 3.310821 
3.246439 -2.272462 -0.409856 
0.199864 -1.447636 -0.347948 
0.199864 -1.447636 -0.347948 
3.906178 -1.530913 -0.480240 
0.000844 -1.303709 -0.329141 
0.000844 -1.303709 -0.329141 
1.385274 -1.543172 -0.494924 
-0.670958 -1.054742 -0.254625 
1.288762 -0.967862 -0.522019 
4.212604 -0.796487 -0.508170 
0.846403 -0.823758 -0.479621 
0.846403 -0.823758 -0.479621 
3.511028 -0.440419 -0.560608 
-0.311387 -0.126696 -0.328912 
-0.393719 0.096897 -0.298127 
-0.068627 0.055247 -0.362379 
4.723795 0.053797 -0.457016 
-5.584304 0.277420 -0.190299 
2.923810 0.035202 -0.560702 
2.923810 0.035202 -0.560702 
-0.328807 0.465835 -0.300380 
3.043850 0.154545 -0.556684 
3.043850 0.154545 -0.556684 
1.393637 0.407207 -0.497140 
1.393637 0.407207 -0.497140 
2.326081 -1.825278 -4.829187 
3.893803 0.898981 -0.433142 
3.144537 2.360318 -0.042809 
-2.914697 1.216806 -0.603615 
-4.086244 1.279412 -0.547956 
-4.526511 1.708532 -0.428314 
-2.169435 1.722326 -0.483478 
-2.169435 1.722326 -0.483478 
0.115713 2.752529 -0.012122 
1.598318 -6.559444 0.723123 
1.434110 -6.287125 0.619277 
0.882156 -4.958830 0.288643 
0.515685 -4.427523 0.186786 
-0.553368 -2.727172 0.041430 
-6.558248 -1.677662 0.542974 
-6.250142 -1.652494 0.460622 
-6.406605 -0.824519 0.367350 
-0.735476 -1.504638 -0.205307 
-1.280319 -1.238836 -0.184613 
3.284162 -1.178427 -0.540658 
4.646646 -0.861917 -0.477981 
4.501635 -0.800600 -0.485847 
2.362266 -0.996329 -0.551051 
2.127117 -0.824821 -0.581394 
2.491871 -0.698912 -0.559202 
1.059259 -0.331756 -0.511731 
3.014254 -0.355629 -0.578557 
-0.227513 0.034439 -0.329901 
2.613549 -0.256814 -0.555515 
1.605793 -0.238656 -0.551876 
-4.953160 -0.133984 -0.412099 
3.355490 -0.090201 -0.537609 
-4.884453 0.061833 -0.441482 
-4.738481 0.037370 -0.487192 
-4.230300 0.082992 -0.590849 
4.881436 0.778974 -0.383826 
3.656930 0.555843 -0.490938 
-3.376819 0.243120 -0.654681 
2.086188 0.761815 -0.466135 
-3.666363 0.595237 -0.643160 
-0.989085 1.293634 -0.384591 
-0.113557 2.469755 0.004740 
-2.729753 1.513264 -0.565916 
0.765478 2.345922 -0.136974 
-2.291637 2.155332 -0.432889 
-3.634300 2.190632 -0.435575 
0.707556 4.008953 0.031580 
1.676959 4.207743 0.071025 
0.834334 4.251014 0.096005 
1.821852 4.436914 0.101779 
0.727862 -5.718380 0.418542 
-0.879069 -4.727360 0.472128 
-0.124778 -4.038887 0.179988 
-1.085060 -3.146411 0.397761 
-5.839324 -2.902063 0.534778 
1.028892 -2.986951 -0.202329 
5.023138 -1.874170 -0.370075 
4.689963 -1.584264 -0.412827 
-0.357905 -1.319023 -0.293750 
4.783493 -0.966137 -0.489152 
1.399158 -0.913474 -0.525231 
0.248087 -0.593764 -0.406786 
-2.665841 -0.793558 -0.565325 
4.118353 -0.411295 -0.502943 
5.153900 -0.135322 -0.400218 
3.679980 -0.206845 -0.525042 
-0.283427 0.300075 -0.298502 
2.428603 -0.041445 -0.564520 
2.728305 0.011533 -0.550937 
4.705224 0.297120 -0.449962 
-5.507099 0.407748 -0.225800 
1.019851 0.292388 -0.475999 
2.021598 0.251441 -0.533618 
-4.696408 0.392383 -0.488599 
5.276028 1.055826 -0.299136 
1.305306 0.703913 -0.469277 
0.426907 0.864475 -0.363368 
0.426907 0.864475 -0.363368 
1.626304 1.551284 -0.314631 
2.536446 2.456510 0.028159 
-4.121476 1.500925 -0.519486 
0.163330 2.493850 -0.055397 
1.419303 4.148519 0.028920 
1.069711 4.564305 0.086957 
0.708750 -4.078931 0.137727 
-0.782264 -2.931011 0.230410 
-0.577999 -1.912211 -0.149833 
4.856873 -1.764580 -0.391562 
-1.022641 -0.953226 -0.240177 
2.847423 -0.804634 -0.570127 
-4.603471 -0.622777 -0.438009 
-0.325604 1.086510 -0.295663 
0.315585 1.202337 -0.284672 
0.656263 1.126660 -0.336533 
-2.998085 0.830321 -0.628689 
-3.927843 1.006809 -0.595905 
-3.891119 1.376811 -0.575762 
-3.164272 1.468311 -0.569067 
-3.367787 2.015482 -0.418833 
0.348855 2.885187 -0.047311 
0.958618 -7.323130 0.841764 
0.358338 -3.711408 0.091690 
1.981802 -1.731534 -0.502192 
4.174671 -1.332118 -0.453592 
-3.584851 -1.189595 -0.505659 
-2.034538 -0.891839 -0.474452 
-2.499452 -0.212308 -0.622724 
1.660553 0.084731 -0.536749 
2.610674 0.350033 -0.525317 
0.132872 0.812281 -0.309531 
4.054143 1.006103 -0.429524 
-0.825464 -3.705415 0.336512 
3.577642 -2.383943 -0.362202 
0.480856 -1.933901 -0.331557 
0.480856 -1.933901 -0.331557 
-1.507308 -1.324893 -0.370524 
-2.482710 -1.030289 -0.513270 
-0.452100 -0.195798 -0.221900 
5.638394 0.192381 -0.356079 
-4.102191 1.907445 -0.428940 
-1.688252 -0.962611 -0.399461 
-1.688252 -0.962611 -0.399461 
5.289554 0.616054 -0.334434 
-4.371640 0.769806 -0.547837 
0.331875 -5.619063 0.411950 
-0.114601 -1.912538 -0.249942 
3.886725 -0.371841 -0.471301 
-1.863866 -0.129717 -0.474163 
0.994125 -1.900266 -0.390638 
0.763142 0.697584 -0.356456 
0.792690 1.812454 -0.309000 
1.954909 -1.681490 -0.428761 
-3.980016 3.691797 0.537526 
0.242507 -2.914460 9.184715 
1.392388 -6.608253 0.684345 
3.198057 -2.816528 6.554112 
0.050959 -2.686028 6.952748 
0.777121 -4.594214 0.204879 
0.545340 -4.557646 0.197357 
-0.469874 -3.472736 0.174716 
-0.469874 -3.472736 0.174716 
-0.469874 -3.472736 0.174716 
2.531639 -2.686208 -0.337402 
1.813443 -2.175041 1.038363 
-2.461565 3.125011 9.629989 
1.927137 -2.456217 -0.398732 
-0.811579 -2.091112 -0.064315 
1.685191 0.191498 4.708206 
-2.438850 -2.148607 -1.094509 
-2.435161 -0.510108 2.561581 
1.385274 -1.543172 -0.494924 
-5.454492 -1.473880 -0.020557 
6.049127 -1.008876 -0.757279 
-2.307305 -1.140775 -0.506205 
-6.820701 -0.654808 0.524116 
1.922861 -0.874493 -0.553962 
2.269852 -0.873945 -0.571525 
5.939461 -0.767390 -0.662722 
2.658345 -0.817287 -0.574284 
1.433384 -0.836339 -0.546883 
6.115739 -0.721555 -0.675535 
2.069681 -0.664530 -0.575352 
-0.589041 -0.470866 -0.266968 
-0.589041 -0.470866 -0.266968 
2.676602 -0.510347 -0.583254 
1.369639 -0.499210 -0.537352 
-3.569104 -0.702475 -0.579314 
-2.662212 -0.623684 -0.561868 
5.697491 -0.128324 -0.338916 
5.629337 -0.031562 -0.346663 
5.921779 0.359032 -0.254844 
0.178878 0.080586 -0.384862 
3.478990 0.162015 -0.525002 
0.250248 0.148292 -0.397204 
0.250248 0.148292 -0.397204 
3.655589 0.330543 -0.485295 
-0.059123 0.270325 -0.349729 
2.977888 0.322452 -0.529723 
1.615202 0.335851 -0.509043 
3.387744 0.425333 -0.508809 
0.360471 0.424401 -0.386450 
0.118868 0.472127 -0.347453 
-4.240016 0.378253 -0.596025 
-2.722567 0.402748 -0.634837 
5.010713 0.888649 -0.351432 
-1.159351 0.690012 -0.288918 
-2.802640 2.235523 2.944983 
2.333738 0.878592 -0.459811 
3.803257 1.044261 -0.411165 
1.675584 0.951003 -0.439994 
1.675584 0.951003 -0.439994 
-2.022893 0.903603 -0.535466 
-2.227986 0.896159 -0.565581 
-2.754987 0.891628 -0.611956 
-3.127989 0.896876 -0.633959 
-3.127989 0.896876 -0.633959 
4.946552 1.498312 -0.264824 
5.052453 1.533365 -0.246617 
-4.811222 1.053151 -0.432936 
-3.083561 1.033340 -0.620074 
-1.586958 1.632348 -0.556999 
1.216150 1.543482 -0.334071 
1.940011 1.592833 -0.312685 
4.495407 1.718739 -0.264044 
5.202741 1.822938 -0.132278 
-2.295828 1.316151 -0.547036 
4.446620 1.960659 -0.202438 
-2.601231 1.538939 -0.549526 
-2.257845 1.585733 -0.511880 
-3.257950 1.548818 -0.573030 
-2.779657 1.627358 -0.554191 
-2.460004 1.687056 -0.517138 
-0.304407 1.315212 -0.714596 
0.260183 2.070960 -0.121069 
-2.577257 1.847692 -0.488035 
1.224273 2.434423 -0.095569 
0.330939 2.433139 -0.097980 
3.669857 2.707438 0.088233 
1.432198 2.571707 -0.039330 
-4.836444 2.232110 -0.251202 
-3.871754 2.189079 -0.436894 
-2.375642 2.319704 -0.404084 
-1.777450 2.437830 -0.275469 
-2.285017 2.376367 -0.409202 
-4.278626 2.502463 -0.314867 
3.515209 3.288813 0.378307 
3.515209 3.288813 0.378307 
-0.214959 3.206349 0.107758 
-2.444574 2.927128 -0.323969 
-2.545746 2.993192 -0.268000 
2.947662 3.793416 0.761120 
3.029113 3.942888 0.792342 
-3.053618 3.220257 -0.247066 
-4.604430 3.483822 0.186955 
-5.001714 3.567486 0.250064 
-0.082117 4.108213 0.226784 
3.610542 4.677213 0.916655 
-3.229718 4.141502 0.159887 
0.412697 4.606818 0.208219 
1.518811 4.743758 0.095487 
1.941449 4.838981 0.156203 
1.941449 4.838981 0.156203 
1.219588 5.043828 0.164444 
3.761271 1.851921 -6.477538 
2.469166 6.848643 0.605077 
2.119551 7.730635 0.842690 
0.723920 -7.382208 0.903494 
-0.922881 -5.287690 0.588337 
1.246331 -4.725833 0.353903 
-0.022470 -0.927646 8.218047 
-0.689453 -4.018411 0.295352 
3.116057 0.756514 8.152562 
0.219619 -2.708419 -0.162076 
0.219619 -2.708419 -0.162076 
-1.714928 -2.987903 -1.828813 
2.950107 -2.632598 -0.347085 
0.499992 -2.457194 -0.258002 
-7.143900 -1.954908 0.959272 
-4.628944 -2.113489 -0.114531 
4.397220 -1.364999 -0.450924 
-5.044769 -1.228461 -0.212380 
1.179351 -1.074558 -0.510399 
1.179351 -1.074558 -0.510399 
-5.009837 -1.123965 -0.230148 
-1.889404 -0.895256 -0.480328 
4.522521 -1.316020 -1.853986 
2.282152 -0.671961 -0.585528 
2.282152 -0.671961 -0.585528 
0.541716 -0.413538 -0.447915 
0.541716 -0.413538 -0.447915 
-4.868403 -0.406267 -0.084513 
1.442745 -0.414912 -0.545461 
3.665769 0.009565 -0.524347 
-4.649520 -0.238185 -0.430509 
-2.729310 -0.218397 -0.628077 
-4.952694 -0.129872 -0.419318 
0.025549 0.175489 -0.366572 
2.262074 0.174453 -0.544023 
-2.149516 0.050800 -0.595619 
6.068079 0.617976 -0.171602 
6.068079 0.617976 -0.171602 
-5.444537 0.188698 -0.216469 
-3.402118 0.078454 -0.651330 
-1.059128 0.568518 -0.239370 
-5.789805 0.717227 -0.095370 
-2.298325 0.614909 -0.598370 
1.784864 1.182677 -0.400840 
-1.371201 1.332636 -0.333470 
-3.255565 1.337888 -0.593193 
1.397995 1.748035 -0.275003 
3.099897 1.896788 -0.237096 
3.083343 2.059437 -0.163752 
0.545637 2.205873 -0.155458 
2.804472 2.335530 -0.052986 
-1.670162 2.032625 -0.309467 
3.249824 2.437496 -0.019607 
-2.508952 2.007399 -0.469313 
-4.244060 2.043633 -0.374916 
4.497647 2.658678 0.080407 
-4.724893 2.131241 -0.298772 
4.362334 2.792609 0.106285 
-2.694767 2.204965 -0.456278 
-2.694767 2.204965 -0.456278 
-4.020159 2.241074 -0.407217 
-2.287364 2.380448 -0.416436 
-2.660565 2.405117 -0.409645 
-2.681497 2.807018 -0.323289 
-4.285471 2.963947 -0.168266 
-4.285471 2.963947 -0.168266 
1.378403 3.459406 -0.011716 
3.908329 3.989512 0.561434 
3.722788 4.090557 0.625045 
-4.779202 3.919815 0.273959 
3.231148 4.657042 0.970644 
0.539638 4.077499 0.061674 
1.212487 4.165539 0.030593 
0.474729 4.230308 0.106853 
1.660704 4.789930 0.114400 
1.763198 4.851729 0.169100 
1.105450 5.151988 0.200834 
1.213599 6.498239 0.529598 
2.056396 6.536087 0.483031 
1.907100 7.916821 0.942307 
1.274580 -6.826614 0.724641 
0.576700 -5.336217 0.332476 
-0.148719 -5.219033 0.382377 
-0.318244 -2.471233 -0.094088 
-6.053912 -1.765494 0.367033 
-7.125389 -0.958000 0.703233 
-0.742004 -1.164814 -0.231686 
2.435988 -1.180148 -0.531951 
-3.841617 -1.312440 -0.429370 
3.830897 -1.026741 -0.528308 
-6.313856 -0.703260 0.354630 
-6.313856 -0.703260 0.354630 
-6.520605 -0.599284 0.350416 
-1.856636 -0.744705 -0.495165 
-2.664305 -0.789927 -0.571673 
3.014254 -0.355629 -0.578557 
2.615468 -0.256494 -0.556031 
2.981525 -0.166636 -0.565276 
-2.289004 0.034835 -0.596679 
3.269434 0.332327 -0.517024 
2.339488 0.344524 -0.522617 
-1.170178 0.467343 -0.284252 
-5.506888 0.408523 -0.227157 
-5.506888 0.408523 -0.227157 
3.243283 0.701925 -0.469322 
1.649106 0.797223 -0.461728 
0.686327 1.991386 0.703933 
0.686327 1.991386 0.703933 
2.036904 1.341525 -0.352615 
5.118863 1.584702 -0.224734 
5.118863 1.584702 -0.224734 
-1.518310 1.339284 -0.361518 
-1.518310 1.339284 -0.361518 
3.450507 1.650520 -0.282005 
3.450507 1.650520 -0.282005 
-2.439195 1.415359 -0.548657 
-4.649431 1.456424 -0.417833 
2.531861 -1.604326 -6.057344 
2.947800 1.967479 -0.197543 
-3.921791 1.520774 -0.528858 
2.460521 2.227784 -0.061240 
2.728078 2.320835 -0.028962 
-1.246545 1.391265 -1.524163 
0.939923 2.421747 -0.148828 
-1.690222 2.336420 -0.242888 
-4.245609 2.353298 -0.344299 
4.390165 2.982019 0.168824 
-2.080724 2.647933 -0.263270 
-4.708599 2.673901 -0.166632 
4.718768 3.340062 0.340529 
3.953162 3.768090 0.471965 
-0.440016 3.583296 0.256712 
3.679446 4.371938 0.759660 
3.320130 5.581797 1.490937 
1.435408 4.851544 0.111883 
1.077880 4.972577 0.169323 
3.473372 5.880570 1.539358 
0.743535 7.008023 3.534140 
0.716242 5.195713 0.289040 
0.716242 5.195713 0.289040 
1.294729 5.910888 0.351272 
2.241750 6.872951 0.581485 
-0.595993 5.298601 -2.449194 
0.973381 -6.199088 0.520437 
0.858391 -5.537351 0.388620 
1.266740 -5.048051 0.357803 
0.616911 -4.663164 0.221279 
4.952250 -2.172151 -0.282147 
2.461394 -2.144826 -0.473389 
-7.127144 -0.959184 0.705274 
6.291415 -0.579872 -0.583712 
-6.359697 -0.458178 0.337269 
0.456695 0.057583 -0.432690 
5.798094 0.580015 -0.289481 
3.957235 0.668390 -0.439814 
-5.507099 0.407748 -0.225800 
4.396630 4.633369 7.275773 
2.086188 0.761815 -0.466135 
2.086188 0.761815 -0.466135 
2.274598 1.176730 -0.392487 
-1.733722 1.002447 -0.480704 
0.264226 2.057885 0.374857 
-2.738438 1.249887 -0.580354 
5.520683 1.987525 0.035282 
-1.244093 1.842614 -0.241821 
4.254793 2.226515 -0.111548 
3.651409 2.417381 -0.060665 
3.330433 2.631462 0.039827 
-2.857346 -2.068004 -9.065154 
-2.465865 2.347716 -0.416141 
-3.244535 2.327142 -0.435024 
-2.602204 2.605254 -0.368693 
-4.707969 2.674924 -0.168415 
-3.135199 2.659315 -0.377354 
-2.918319 3.030519 -0.290600 
2.870551 3.942424 0.885692 
-2.622388 3.200915 -0.199230 
3.425519 4.048290 0.682122 
0.218562 4.467904 0.214748 
0.717362 5.193846 0.292350 
0.717362 5.193846 0.292350 
1.302778 5.913575 0.346739 
2.243801 6.862808 0.599369 
1.572049 7.342219 0.757665 
1.943773 -0.468156 12.200235 
2.095166 -5.807018 -1.200265 
0.499275 -3.983152 0.099290 
-4.426846 0.920778 7.385421 
-4.294959 -0.141217 3.918233 
-5.536158 -1.643873 0.025524 
2.402698 -1.570558 -0.528465 
3.684398 -0.845125 -0.536988 
-4.814492 -0.429922 -0.443615 
-2.787998 -0.400806 -0.627476 
-0.563377 0.659133 -0.194668 
2.523206 0.668110 -0.487765 
-0.198325 0.956716 -0.236940 
-0.325853 1.456228 -0.097394 
-1.502679 1.771914 -0.299890 
-1.502679 1.771914 -0.299890 
0.277476 1.917169 -0.192374 
-4.521732 1.734681 -0.416595 
4.493245 2.320622 -0.076906 
-2.373934 1.856203 -0.490569 
-2.373934 1.856203 -0.490569 
3.974687 2.507061 -0.047158 
4.485770 3.236301 0.281633 
1.887128 5.830418 4.610830 
3.162015 3.884308 0.757386 
1.550711 5.284825 0.191888 
0.941112 -6.926854 0.741556 
0.376864 -3.312008 -0.047667 
3.182109 -2.483198 -0.344027 
1.717938 -2.515060 -0.350778 
-4.227705 -0.869271 -0.483373 
4.413531 -0.381287 -0.525977 
5.130530 0.149857 -0.402058 
-1.227631 -0.007024 -0.269110 
-1.448726 0.364439 -0.411654 
0.812762 1.668573 0.794071 
4.459352 1.115228 -0.401302 
-0.030263 1.204298 -0.247421 
-5.290131 1.080242 -0.281772 
-2.576080 1.239860 -0.578728 
4.487589 2.331598 -0.096341 
1.218228 2.619978 -0.167220 
-3.042231 3.485647 -0.108921 
1.137631 3.816953 -0.003317 
-3.661668 4.058123 0.101250 
-0.036493 -4.744054 0.284969 
3.173601 -2.483883 -0.343024 
2.752011 -1.896858 -0.533706 
-2.532025 -1.419956 -0.458438 
1.670063 -0.817570 -0.544782 
4.412322 -0.378457 -0.530983 
-4.840798 -0.259203 -0.412319 
1.660553 0.084731 -0.536749 
-4.273452 0.173334 -0.594885 
3.610930 0.795568 -0.415540 
-3.319167 0.554215 -0.625428 
-3.319167 0.554215 -0.625428 
4.460768 1.107982 -0.388526 
4.874565 1.092328 -0.349768 
-0.466562 1.072188 -0.117770 
-0.043691 1.231595 -0.295744 
-3.871909 1.388291 -0.595493 
1.612782 2.056591 -0.183685 
-3.465596 2.651507 -0.385462 
-3.841827 3.002873 -0.236480 
-3.841827 3.002873 -0.236480 
-3.988223 3.591973 -0.057863 
1.119601 -8.013417 1.273071 
-0.110184 -5.853284 0.556550 
3.171949 -1.980744 -0.448914 
4.459167 -1.717180 -0.344894 
4.459167 -1.717180 -0.344894 
4.703872 -0.635077 -0.459526 
4.254502 0.196129 -0.490448 
5.289554 0.616054 -0.334434 
4.054143 1.006103 -0.429524 
1.339290 1.182647 -0.388461 
1.339290 1.182647 -0.388461 
-4.810632 1.331538 -0.396225 
-2.945213 1.862023 -0.493289 
-4.102191 1.907445 -0.428940 
-5.297393 2.392032 0.155012 
-5.815503 1.313512 -5.112329 
-1.732697 -3.786235 0.771093 
-3.120671 -0.117507 -0.630995 
3.172647 0.408236 -0.403976 
5.988005 0.653981 -0.270604 
-1.501518 0.668698 -0.358373 
2.897167 1.016516 -0.401483 
2.897167 1.016516 -0.401483 
4.718891 1.961993 -0.101160 
-1.671592 -3.499595 0.695513 
-5.131901 2.016748 5.114606 
2.039931 -0.306874 -0.559001 
-0.359881 0.157603 -0.261142 
2.101662 0.774060 -0.448334 
-3.562049 1.378065 -0.601627 
1.019346 3.707772 0.062881 
0.792690 1.812454 -0.309000 
3.447181 -0.266216 -0.485517 
0.586024 -7.205586 1.614104 
