ply
format ascii 1.0
element vertex 696
property float x
property float y
property float z
end_header
4.291244 -0.182770 -0.034301 
-1.289481 -1.060497 0.030662 
3.793149 4.676398 0.022316 
-1.555410 0.714557 -0.164119 
-0.092048 -1.950505 7.575683 
-0.631793 -1.562833 0.085829 
-0.631793 -1.562833 0.085829 
4.995126 1.639965 -0.266876 
-0.791971 -1.134359 0.063702 
-0.791971 -1.134359 0.063702 
-4.579711 2.981830 -0.105130 
3.560956 6.076111 -0.100654 
-3.980418 2.481412 -0.024770 
3.572840 4.785236 0.031189 
-4.233737 3.145829 -0.123717 
0.400864 1.392521 8.566020 
3.944836 5.740303 -0.055521 
3.721486 5.502713 -0.026084 
3.138674 5.101826 -0.018596 
4.679049 0.598354 -0.153198 
4.124233 5.726403 -0.081701 
2.930659 4.497667 0.052117 
3.267704 5.623009 -0.055549 
-6.453789 2.957837 -0.457785 
-5.626175 3.169770 -0.235142 
5.000020 4.340200 -0.558215 
2.066467 -2.490358 0.173803 
3.633274 -3.882141 0.143218 
3.510850 4.948199 0.017262 
2.560445 4.340314 0.057458 
3.480967 4.079386 0.073466 
3.508389 3.860437 0.062287 
2.922349 3.924895 0.091676 
-2.169908 -1.548544 2.249480 
0.913074 1.987550 0.122385 
-4.504785 2.211230 -0.051568 
-4.504785 2.211230 -0.051568 
-4.205771 2.030247 -0.021633 
-4.205771 2.030247 -0.021633 
-3.417342 1.654606 -0.007640 
-5.356108 1.542908 -0.094894 
4.356515 -2.561930 0.071560 
3.178453 -1.759826 0.121391 
-2.591416 0.033697 0.035264 
-2.535684 -0.011552 0.029108 
0.595122 -0.885783 0.120091 
-4.571462 0.437899 0.006830 
-0.309431 -1.314183 0.108501 
0.978744 -1.450707 0.177546 
5.698774 3.603485 -0.555338 
4.083797 0.799387 -0.103375 
2.655516 3.381547 0.121413 
3.851746 0.035062 -0.029720 
1.622666 2.910985 0.117351 
0.832182 2.241911 0.099189 
0.160117 1.433273 0.079009 
3.024893 -0.988394 0.048521 
3.465150 -1.204426 0.076996 
-2.599531 1.219810 -0.023946 
3.486981 -1.389125 0.099924 
-5.493671 1.347812 -0.095918 
3.092974 -1.415427 0.099075 
-6.021452 0.695712 -0.156740 
-5.002989 1.428524 -0.057576 
2.870686 -1.635028 0.129381 
4.347007 -3.250502 0.088767 
-3.783871 1.145535 0.027437 
1.893255 -1.236001 0.126011 
-3.701642 1.002362 0.027339 
1.650998 -1.281074 0.132610 
1.760206 -1.315765 0.130961 
-3.893761 1.006797 0.025257 
3.033536 -2.006297 0.138986 
1.289668 -1.189067 0.141650 
1.172007 -1.250693 0.140210 
2.620120 -2.477242 0.164416 
-3.972068 0.019612 0.046892 
-4.690702 -0.056108 0.012931 
-5.641551 1.309665 -0.136447 
4.350630 0.744999 -0.121426 
2.886827 5.565040 -0.080486 
4.278620 5.167642 -0.038249 
-1.251532 -0.567716 10.313071 
3.323823 3.939519 0.085860 
2.681468 3.853370 0.088937 
2.672354 3.635191 0.108680 
3.705656 -0.108843 -0.050283 
-4.155944 2.303028 -0.044141 
-1.675409 -0.040347 -0.086720 
0.840785 1.521076 0.133292 
-3.805126 1.675914 0.002475 
0.810580 -0.219901 0.096580 
-2.744485 0.775103 0.030113 
1.982437 -1.088474 0.097958 
-3.412574 0.948838 0.047171 
-3.412574 0.948838 0.047171 
0.843150 -0.704154 0.128694 
0.923039 -0.924440 0.108777 
3.030477 -2.280341 0.162797 
0.936659 -1.193593 0.155627 
-6.246475 -2.961579 0.007276 
5.408349 3.360897 -0.523927 
-3.102433 1.054702 0.014580 
3.968538 6.547665 -0.216342 
5.032819 2.070784 -0.342180 
5.032819 2.070784 -0.342180 
0.938031 -3.194686 0.164362 
3.823807 5.630610 -0.070247 
4.740007 0.266045 -0.124562 
3.148558 4.051377 0.079890 
4.437599 -1.615283 0.016150 
3.284815 -0.923675 0.070438 
-5.462622 1.774207 -0.123867 
-3.246555 1.147925 0.032657 
-0.857825 -0.450295 0.024658 
-2.877421 0.464105 0.021347 
0.636976 -0.615345 0.119225 
-5.099453 -1.692044 0.197563 
-1.100503 -0.912191 0.034634 
4.120564 6.066663 -0.099235 
2.556794 3.835372 0.061099 
4.447444 -0.902860 -0.008026 
-0.982965 -0.082168 -0.011970 
-2.495282 0.800335 -0.005169 
3.516669 -1.653197 0.094228 
3.317050 -1.862115 0.112402 
3.528523 -2.224602 0.130317 
-5.025140 0.009899 -0.016967 
5.601550 3.136157 -0.552250 
4.818700 0.972176 -0.208622 
2.421019 3.313847 0.113847 
3.897433 -0.934548 0.005105 
3.897433 -0.934548 0.005105 
2.612313 -0.527069 0.061574 
4.204777 -1.373841 0.026486 
1.194653 -1.550460 0.162966 
4.311121 1.171043 -0.100984 
3.532019 0.325328 -0.035446 
2.836387 -0.893576 0.076834 
4.079024 -2.322931 0.052482 
-4.605624 0.971755 0.004914 
3.398995 4.488625 0.016848 
-4.905349 2.637656 -0.110204 
-5.626175 3.169770 -0.235142 
4.925564 4.125718 -0.551018 
4.872555 3.979159 -0.539859 
3.984383 4.917139 -0.006641 
3.273498 5.035799 0.009562 
3.273498 5.035799 0.009562 
3.724924 3.735380 0.062700 
2.646249 3.229651 0.126046 
-0.638376 -0.366469 -11.083268 
1.703328 -3.192489 -4.916277 
-5.814534 1.424415 -0.155096 
4.399766 0.038924 -0.069477 
3.321807 0.015935 -0.035993 
3.547847 -0.322801 -0.012044 
4.000742 -0.740447 -0.002964 
4.556121 -1.424623 -0.012235 
0.654730 1.047237 0.122142 
0.683912 0.575381 0.113315 
2.955284 -1.124780 0.083434 
4.346535 -2.373667 0.054844 
-0.300489 0.393519 0.046759 
3.801888 -2.012422 0.094440 
0.798118 -0.126302 0.097707 
1.390657 -0.794292 0.114087 
2.334629 -1.604847 0.153426 
3.601165 -2.675817 0.127576 
2.505115 -1.943202 0.136586 
-0.310558 -0.645293 0.088363 
0.049626 -0.827223 0.115184 
-3.889703 -1.865047 3.362987 
4.051856 -3.601196 0.116534 
-4.444718 1.402691 -0.002002 
0.475894 -1.094556 0.127972 
0.475894 -1.094556 0.127972 
-2.529821 0.136310 0.020422 
-2.754013 0.206544 0.042703 
-5.187977 1.098003 -0.061797 
-5.766873 1.078575 -0.140026 
2.130663 -2.676520 0.187772 
-2.004919 -1.332026 -0.024459 
-2.004919 -1.332026 -0.024459 
-1.831174 -1.429271 -0.040124 
-5.319139 0.635939 -0.062874 
-5.319139 0.635939 -0.062874 
-2.230044 -1.486418 -0.033831 
-3.240350 -0.318665 0.048257 
0.569883 -2.425959 0.168315 
-1.516852 -2.007569 0.011566 
0.974194 -2.820737 0.178873 
-5.924191 0.153895 -0.126072 
-4.515710 -0.111310 0.028952 
-4.404622 -0.182800 0.035423 
-0.962620 -2.537482 0.055576 
1.653899 -3.733052 0.143583 
0.864840 -3.571601 0.167786 
-4.725168 -0.492591 0.016859 
-4.850122 -1.564823 -0.021560 
4.474749 -3.267827 0.071832 
4.811275 2.692089 -0.394249 
2.814852 3.785854 0.093803 
2.145353 2.679700 0.143136 
2.151523 2.414462 0.143708 
-5.434782 4.344961 -0.327473 
3.464489 -0.229408 -0.010469 
3.759196 -0.784464 0.022695 
4.635310 -1.589437 -0.023602 
4.268112 -1.364297 -0.005769 
3.519450 -0.928446 0.045928 
0.265964 1.267981 0.087348 
1.563056 -0.258079 0.071486 
-0.536598 0.321353 0.006832 
-0.536598 0.321353 0.006832 
0.195931 -0.029219 0.087191 
2.714935 -1.505062 0.116581 
3.197725 -2.100259 0.135745 
-3.252842 1.388151 0.024065 
1.069059 -1.005858 0.134391 
4.380947 -3.454911 0.083991 
4.224443 -3.404779 0.113895 
-4.234304 1.515489 0.006955 
-1.135423 -0.464426 0.018020 
-0.141081 -0.710583 0.121508 
-1.876147 -0.510507 -0.051435 
-0.068511 -0.793702 0.111923 
-0.379845 -0.791431 0.090967 
-0.379845 -0.791431 0.090967 
3.466941 -3.148373 0.153591 
-0.309431 -1.314183 0.108501 
-1.021910 -0.750096 -5.360026 
3.735752 -3.997917 0.132995 
-5.796863 0.777940 -0.135158 
0.496285 -1.892220 0.153140 
2.722743 -3.360343 0.174013 
0.617927 -2.075714 0.183352 
0.617927 -2.075714 0.183352 
-3.180808 -0.132618 0.054344 
2.277780 -3.131997 0.184547 
-5.727997 -0.032617 -0.095748 
0.969765 -3.689772 0.163328 
0.969765 -3.689772 0.163328 
-4.053249 -0.965326 0.040218 
-4.264472 -0.925192 0.036921 
-5.298914 -0.640866 -0.024220 
-5.858387 -0.753087 -0.131430 
-5.827840 -0.985140 -0.156954 
-3.793256 -1.783076 0.032754 
4.205887 2.010967 -0.281115 
3.633571 3.838851 0.076339 
3.761672 1.229467 -0.155287 
4.576593 0.423104 -0.111872 
2.182954 2.998181 0.127675 
1.716242 2.628352 0.134215 
2.420028 2.228650 0.160544 
1.560031 2.524724 0.133562 
2.324844 2.041310 0.143267 
0.505100 2.026623 0.101724 
0.505100 2.026623 0.101724 
1.299611 1.620247 0.144826 
0.174654 1.050658 0.087411 
0.174654 1.050658 0.087411 
0.621752 0.798759 0.098823 
-5.156594 2.378306 -0.104418 
-2.428438 1.059258 0.005190 
-0.163922 0.030309 0.059719 
0.364184 -0.105859 0.101699 
-5.298143 2.161618 -0.117782 
-3.043347 1.245668 0.027595 
-2.744485 0.775103 0.030113 
-3.579595 1.318064 0.027892 
0.595122 -0.885783 0.120091 
2.698174 -2.293837 0.153309 
0.653854 -1.069671 0.142747 
-5.170688 1.445029 -0.065082 
2.620120 -2.477242 0.164416 
3.205699 -2.899429 0.173394 
0.480693 -1.288690 0.144776 
-0.250107 -1.071687 0.104943 
-1.712268 -1.169494 -0.017368 
2.702668 -3.614421 0.179817 
-3.972068 0.019612 0.046892 
0.649498 -2.581805 0.177696 
-4.230366 -1.213825 0.021132 
-4.185475 -1.070186 0.035388 
-5.273113 -0.902729 -0.030220 
0.509027 -0.686131 -0.167702 
3.801888 -2.012422 0.094440 
5.719092 3.307180 -0.546665 
3.351831 5.972482 -0.113428 
2.719424 4.300742 0.058083 
2.180395 2.258020 0.147471 
2.982399 0.071393 -0.084322 
2.653351 -0.007905 -0.043450 
0.268440 1.297972 8.738072 
0.016220 0.829483 0.069283 
0.016220 0.829483 0.069283 
-3.324421 2.011188 -0.015556 
-0.475671 0.141627 0.050995 
4.347007 -3.250502 0.088767 
-0.768021 -0.700306 0.054200 
-0.768021 -0.700306 0.054200 
3.411844 -2.960234 0.160195 
2.158826 -2.229943 0.171666 
-1.100503 -0.912191 0.034634 
-0.886985 -0.927763 0.049032 
-4.949456 1.199301 -0.036781 
-2.189537 -0.504615 0.001995 
1.117232 -1.807874 0.175062 
-3.484650 0.358142 0.049946 
-3.484650 0.358142 0.049946 
2.910424 -3.322286 0.153477 
-2.630432 -0.484464 0.005736 
-1.450580 -1.453923 0.013743 
2.028024 -2.808392 0.182126 
-0.817648 -2.057526 0.078281 
-3.334656 -0.470858 0.057272 
-3.334656 -0.470858 0.057272 
1.573868 -3.295130 0.188142 
-4.867335 -0.278297 0.008952 
3.891476 6.236722 -0.137561 
3.891476 6.236722 -0.137561 
5.414247 2.396636 -0.423901 
4.913543 2.335151 -0.344410 
4.817641 1.751311 -0.266103 
4.991856 0.137725 -0.140130 
4.058695 -0.302423 -0.026987 
4.161705 -0.786740 -0.006903 
-6.551179 3.467441 -0.361599 
0.392037 1.700394 0.081684 
-6.402790 1.950127 -0.346396 
0.787352 -0.941095 0.123216 
3.807875 -3.725728 0.142907 
-1.860886 -0.942518 -0.028573 
-2.102159 -1.010820 -0.043162 
-6.196586 0.638636 -0.191172 
1.838486 -2.656821 0.176554 
-0.298800 -1.726737 0.113649 
0.734034 -2.257139 0.170576 
-4.699683 0.325923 0.003471 
1.146265 -2.881303 0.167743 
0.571778 -2.632369 0.172895 
-5.556522 0.104618 -0.083940 
-5.025140 0.009899 -0.016967 
-3.970220 -1.107182 0.052752 
4.607286 1.370076 -0.206651 
3.156305 0.581529 -0.114657 
1.133809 1.998901 0.136415 
-6.733003 3.036305 -0.439632 
1.826345 -0.643252 0.080745 
0.467260 0.139127 0.113499 
-5.901429 2.174172 -0.304021 
2.237730 -1.123225 0.112048 
1.490542 -0.732999 0.093932 
3.710523 -2.488601 0.144854 
0.020554 -0.977936 0.123887 
-0.619069 -1.143724 0.093436 
-5.363615 0.746036 -0.084182 
-5.363615 0.746036 -0.084182 
2.015829 -3.107883 0.161401 
-4.114552 -0.728898 0.026855 
-5.097827 -0.435360 -0.021153 
5.175158 2.952522 -0.476917 
4.787967 2.861812 -0.400648 
1.279685 2.541646 0.121964 
3.827803 -1.852436 0.101999 
3.827803 -1.852436 0.101999 
-1.657071 -0.233827 -0.055651 
3.362476 -2.514235 0.197454 
-3.179726 0.708647 0.056671 
1.174797 -2.239571 0.169355 
-2.919234 -0.262043 0.051855 
1.543401 2.032426 0.152250 
-5.730230 3.733666 -0.247635 
0.197046 -1.535503 0.125858 
4.967900 1.555329 -0.201362 
3.486195 0.874726 -0.179092 
1.769259 -2.021288 0.153944 
2.265840 -0.429884 -0.019280 
-4.149007 -0.103086 -0.659821 
-4.149007 -0.103086 -0.659821 
4.379200 5.132065 -0.036484 
2.541303 -0.937738 -5.660331 
3.461981 3.694537 0.089897 
3.579200 3.490509 0.030144 
2.922349 3.924895 0.091676 
-0.767453 -0.711302 -4.971281 
0.054235 0.581295 -8.314893 
2.902060 2.441658 0.131164 
2.902060 2.441658 0.131164 
4.708407 0.446286 -0.115635 
4.268585 0.550724 -0.093828 
2.002989 2.411292 0.155186 
4.399766 0.038924 -0.069477 
1.166339 2.233093 0.109361 
0.878875 1.303049 0.132918 
0.878875 1.303049 0.132918 
0.790924 1.229064 0.127959 
0.790924 1.229064 0.127959 
-2.627254 -0.228209 -6.230152 
-0.380791 1.473756 0.000776 
0.654730 1.047237 0.122142 
0.535331 -3.073130 -9.909856 
4.253722 -2.220544 0.070460 
-4.140022 2.947807 -0.085695 
-5.307108 3.215570 -0.182736 
0.587574 -0.411379 0.114338 
-1.321757 4.092641 9.861492 
0.299961 -0.663795 0.113754 
0.299961 -0.663795 0.113754 
-2.670543 1.058959 0.001699 
0.383364 -0.831870 0.132854 
3.784937 1.586847 -1.968618 
-3.591590 1.168742 0.019567 
-3.866743 1.267302 0.017782 
3.256145 -3.210970 0.154982 
-3.593671 1.044476 0.037697 
-0.113016 -1.150273 0.114993 
-4.444718 1.402691 -0.002002 
-2.769103 0.328656 0.039887 
-1.663806 -0.582690 -0.035189 
-5.537517 1.685537 -0.126045 
0.302587 -1.834297 0.146032 
-5.511480 1.538612 -0.114591 
3.506624 -4.033991 0.131576 
-0.805594 2.984035 11.492963 
1.750539 -2.845186 0.183698 
-0.120237 -1.726673 0.134003 
-0.120237 -1.726673 0.134003 
-2.706692 -1.394568 -5.020677 
0.536455 -2.273734 0.160548 
-1.836891 -1.413668 -0.026809 
-2.554566 -0.907518 0.015887 
-6.178274 0.634297 -0.310294 
-1.285892 -1.858880 0.042512 
-3.936291 -0.173533 0.057023 
-0.829795 -2.290725 0.074870 
-4.603679 0.116577 -0.003833 
2.082540 -4.190595 0.166995 
2.082540 -4.190595 0.166995 
1.871579 -4.058556 0.165884 
1.871579 -4.058556 0.165884 
-2.172354 -1.865949 -0.044145 
-2.883067 -1.265886 0.038133 
-0.070030 -2.991923 0.125392 
-2.786330 -1.438813 0.019849 
-6.392788 0.479765 -0.226469 
-5.610318 -0.187068 -0.072169 
0.936154 -4.288900 0.126117 
0.810922 -4.222339 0.143105 
-0.830626 -3.394635 0.039359 
-4.098761 -1.193652 0.040434 
2.294696 -5.507279 0.081084 
-1.350604 -3.280327 -0.024433 
1.248598 -4.828186 0.114096 
-1.815521 -2.379946 7.648568 
-0.705104 -4.172160 0.013896 
-5.127554 -1.192190 -0.025854 
-4.793017 -2.133599 -3.092543 
0.907737 -6.671914 -2.317510 
-5.487327 -1.448220 -0.032396 
-5.103049 -2.001686 -0.063368 
-4.412924 -3.814972 -1.044572 
5.017763 4.710028 -0.577576 
4.266365 4.823283 -0.018517 
3.713175 5.130330 -0.001440 
4.738826 3.317428 -0.461395 
3.899519 4.569825 0.034008 
4.909727 1.226836 -0.209978 
2.709521 2.954039 0.130994 
1.471883 3.278628 0.097661 
1.471883 3.278628 0.097661 
1.011454 1.412714 -9.258462 
0.895621 2.700205 0.076075 
0.895621 2.700205 0.076075 
2.419603 1.759945 0.127095 
2.089207 1.643344 0.190883 
1.603774 1.603596 0.150297 
0.171078 1.520355 -9.338288 
0.313531 1.831654 0.075202 
0.313531 1.831654 0.075202 
1.592479 1.067256 0.151720 
0.661906 1.613423 0.115892 
4.555046 -1.246170 -0.005824 
1.794756 -1.820824 -0.511768 
0.896599 0.561828 0.121446 
0.585395 0.426517 0.110374 
0.718931 0.200200 0.102859 
0.224880 0.172740 0.083168 
3.764750 -2.153286 0.097441 
-0.873884 0.434460 -0.029621 
1.760206 -1.315765 0.130961 
0.302177 -0.662517 0.109329 
2.145817 -1.860614 0.155331 
3.964581 -3.919845 0.127354 
-0.779961 -0.928391 0.072532 
-0.779961 -0.928391 0.072532 
-2.535684 -0.011552 0.029108 
-6.322600 1.707781 -0.300961 
-4.368730 -2.253677 3.969094 
-0.524088 -1.889582 -1.105181 
-1.086760 -1.828209 0.057189 
-2.123322 -1.309034 -0.035027 
-5.429147 0.786810 -0.067411 
2.382722 -4.044112 0.158736 
-0.554099 -2.391200 0.102586 
3.090553 -4.884615 0.091879 
-1.217481 -2.262068 0.051399 
-2.878856 -1.255145 0.030559 
-0.962620 -2.537482 0.055576 
-1.319196 -2.491890 0.037626 
-1.315370 -2.682790 0.016578 
-1.315370 -2.682790 0.016578 
2.239598 -5.003571 0.115699 
0.265742 -3.746614 0.126703 
1.402888 -4.603486 0.129706 
-4.185475 -1.070186 0.035388 
-3.141599 -1.806004 0.011170 
-4.826717 -0.718921 0.009496 
-0.573523 -3.489278 0.062403 
-1.152948 -3.497429 -0.005883 
-4.208142 -1.472323 0.031377 
-6.507805 -0.548920 -0.247787 
-5.753654 -1.135544 -0.108277 
-2.421872 -4.464906 -8.735037 
3.796271 4.872416 0.010393 
5.340312 2.218936 -0.379829 
4.453394 2.678238 -0.385805 
1.479753 3.011114 0.113550 
1.716242 2.628352 0.134215 
4.502161 0.161354 -0.075791 
0.000031 0.031108 5.892060 
0.574476 1.472417 0.104545 
1.103179 1.061289 0.137849 
-5.918640 4.468902 -0.379108 
-5.918640 4.468902 -0.379108 
0.035713 1.208730 0.069507 
0.261204 0.781098 0.105311 
-5.430634 3.768896 -0.252415 
-0.530026 -2.462127 5.999567 
-6.653868 3.764033 -0.446082 
-3.459826 2.041662 -0.007485 
-0.828841 0.027759 0.024878 
-3.579595 1.318064 0.027892 
0.904336 -1.642404 0.148550 
-6.198944 2.131225 -0.320139 
-0.250107 -1.071687 0.104943 
0.874239 -1.922268 0.170496 
-3.126393 0.241303 0.044924 
3.913977 -4.843133 0.107369 
-2.081295 -1.485984 -0.027366 
2.515081 -4.932972 0.130904 
-5.727997 -0.032617 -0.095748 
-0.348240 -3.498509 0.078386 
-3.871512 -1.468293 0.021814 
-5.647756 -0.575738 -0.086842 
0.710755 -4.592185 0.090266 
-1.132159 -3.737613 -0.018484 
1.102699 -5.190601 0.055339 
-2.319864 2.814856 9.792990 
-6.000177 -1.078343 -0.139033 
-0.564574 -1.733249 6.980859 
-4.939801 -1.813803 -0.037025 
-5.551664 -1.786519 -0.103913 
-6.196928 -2.740501 -0.119912 
4.120564 6.066663 -0.099235 
3.351831 5.972482 -0.113428 
5.924207 3.461457 -0.614988 
4.278620 5.167642 -0.038249 
4.678164 1.946728 -0.280317 
4.678164 1.946728 -0.280317 
1.107589 1.461755 -9.177849 
4.400009 0.456531 -0.100666 
4.503948 0.166078 -0.078987 
1.963030 1.703616 0.137428 
1.298417 1.622512 0.147507 
-5.923117 4.682592 -0.398982 
-5.655003 4.380946 -0.346095 
0.271414 1.270626 0.076414 
-6.652350 3.766087 -0.448995 
-3.213515 2.216467 -0.029325 
3.365606 -2.104195 0.125692 
1.957096 -1.497025 0.110624 
-2.424869 1.069138 -0.001150 
-5.161914 2.414991 -0.089799 
-4.177998 1.586695 0.000254 
0.808199 -1.453502 0.144459 
3.503628 -3.773701 0.155689 
-2.060144 -0.662694 -0.033213 
0.199001 -1.940079 0.145944 
1.058328 -2.602341 0.184705 
3.914076 -4.842962 0.107182 
-4.894164 0.734950 -0.017288 
-1.673748 -1.426677 0.006382 
2.464071 -4.588524 0.160190 
2.638313 -4.746502 0.137320 
-4.274975 -0.370325 0.038716 
0.419275 -3.717858 0.115066 
-0.988021 -3.066366 0.043098 
1.027987 -4.415330 0.127598 
-6.443109 -0.164432 -0.236264 
-5.605060 -0.518871 -0.123038 
3.053449 -2.788563 4.037126 
-4.948973 -1.530119 -0.012563 
-4.311400 -2.221371 -0.013263 
4.473925 5.090965 -0.049422 
4.587544 2.808956 -0.412473 
2.749991 0.476440 -0.123751 
4.161705 -0.786740 -0.006903 
0.419077 0.975293 0.107072 
1.742022 -0.363305 -0.008255 
-5.616616 2.766957 -0.225891 
4.234642 -4.080204 0.093071 
-1.452293 -0.524177 -0.015104 
-1.515011 -1.041216 0.029606 
2.480526 -3.848046 0.156668 
-1.248909 -1.653926 0.028603 
-5.617132 0.978900 -0.109285 
0.191290 -2.684580 0.144523 
1.503754 -3.985765 0.170807 
-5.556522 0.104618 -0.083940 
-1.528826 -3.060933 -0.036463 
1.543399 -4.817361 0.141482 
-5.048131 -1.223297 -0.026056 
-5.014528 0.630828 -2.908430 
4.086903 1.338961 -0.233007 
0.643663 3.325179 -0.041157 
1.384536 3.145532 0.102925 
1.384536 3.145532 0.102925 
-0.412342 3.297816 -0.231218 
4.581771 -0.088050 -0.067231 
4.291244 -0.182770 -0.034301 
-5.261210 4.222903 -0.248622 
0.426188 0.580959 0.098174 
0.426188 0.580959 0.098174 
-5.311987 3.449184 -0.206751 
3.908657 -2.779350 0.097881 
3.555184 -3.239047 0.133573 
-4.142657 1.152268 0.019748 
-3.947481 0.870647 0.021414 
-2.901475 -0.737525 0.028629 
-2.711498 -1.066614 0.034448 
-2.164768 -2.075112 -0.105869 
-1.585226 -2.552478 -0.020913 
-1.585226 -2.552478 -0.020913 
-0.007879 -3.403204 0.138087 
1.249411 -4.178338 0.136350 
1.249411 -4.178338 0.136350 
-0.166781 -3.769921 0.085614 
-4.745921 1.323982 4.253382 
-4.689115 -1.383586 -0.033025 
-4.411538 -1.520150 0.019912 
-5.316192 -1.334207 -0.042051 
-5.170636 -1.864575 -0.113043 
2.248945 3.807624 0.045790 
4.818700 0.972176 -0.208622 
1.293753 1.414038 0.153331 
3.294998 -1.337530 0.088847 
-0.248932 0.648307 0.053074 
-6.011968 2.630706 -0.306035 
4.547244 -3.667899 0.088338 
-2.910846 -0.746103 0.047022 
-0.653493 -2.648515 0.092273 
-0.311623 -3.070006 0.102035 
-0.311623 -3.070006 0.102035 
5.003117 1.556330 -0.273626 
4.311121 1.171043 -0.100984 
3.967320 0.228444 -0.070215 
3.532019 0.325328 -0.035446 
4.079024 -2.322931 0.052482 
-5.291891 2.798608 -0.158777 
2.349761 -2.850439 0.201990 
3.706633 -4.387257 0.129914 
-0.977476 -1.472903 0.051002 
2.704112 -4.268190 0.159696 
-1.256780 -2.085404 0.048998 
-6.013246 0.195491 -0.168598 
-6.013246 0.195491 -0.168598 
5.732180 4.356029 -0.706423 
3.398995 4.488625 0.016848 
1.117737 -0.458955 0.132761 
0.564878 -2.142341 0.196973 
-0.195609 -2.377746 0.119372 
-3.154984 -1.040784 0.034570 
4.809698 -0.198922 -0.147178 
4.673433 -2.399280 -0.039945 
2.592326 -1.652323 0.055124 
-4.348855 0.627849 0.034399 
1.657765 3.719694 0.214015 
5.251648 0.839940 -0.248643 
-6.274012 1.320343 -2.349897 
-5.305503 1.435764 -1.351356 
-3.938654 1.706456 -0.051323 
2.636436 -2.374047 0.158722 
-0.608027 2.235732 -0.215498 
