ply
format ascii 1.0
element vertex 562
property float x
property float y
property float z
end_header
4.231344 1.822930 0.705982 
2.768404 -3.374887 -6.832673 
-1.354441 -1.720411 -6.825993 
3.796365 1.518554 0.727098 
6.923057 0.225683 0.013602 
0.088867 2.292763 -11.118159 
0.112452 -5.212568 -0.367466 
-3.256749 -3.349173 0.744651 
0.890053 -0.989694 -0.138885 
-0.154014 -5.669725 -0.417571 
-1.212248 -5.890084 -0.120611 
-3.337470 4.127857 0.387598 
-2.011895 -6.091212 0.017755 
-1.854045 -5.353828 0.221160 
-1.307973 -5.835516 -0.051489 
-0.939138 -0.304497 -0.159280 
1.641149 -3.813527 -0.602126 
0.967290 -1.291451 -0.200507 
2.977013 0.514281 0.502493 
-0.842582 -5.183538 -0.035475 
-2.100821 -5.636275 0.182446 
-2.100821 -5.636275 0.182446 
-2.263470 -5.326364 0.280847 
-3.433310 -3.854086 0.599004 
-2.847763 -2.923848 0.806884 
-2.720239 -2.452966 0.890012 
-3.509118 -3.126657 0.837993 
-2.268379 -2.187257 4.145292 
2.753541 0.691059 0.566092 
-3.613035 4.762787 0.589109 
0.736599 -4.130030 -0.387328 
-2.083359 -5.877696 0.105989 
-3.037566 -3.583653 0.643394 
-4.102113 -3.838616 0.672715 
-1.306428 -1.683629 -5.720945 
-1.240151 -1.678398 -4.785576 
-3.099362 -3.451296 0.691643 
6.764371 -0.212164 -0.050842 
0.536672 -4.607523 -0.387267 
-4.089428 3.073759 0.228983 
6.345523 4.166074 0.019425 
5.822991 0.420398 0.309557 
6.373502 -0.081297 0.089025 
1.954617 -0.099521 -5.938937 
5.544778 0.675404 0.384427 
0.958738 -1.955283 -0.305883 
5.061415 0.657221 0.480458 
5.132453 1.187610 0.542075 
5.132453 1.187610 0.542075 
3.765477 -0.219606 0.358605 
4.071294 0.270062 0.460237 
0.158137 -1.282101 -0.168869 
0.141409 -1.003421 -0.121031 
-0.769690 -5.265539 -0.073538 
4.547098 1.314297 0.616090 
-0.824456 -1.156916 -0.149419 
-0.824456 -1.156916 -0.149419 
3.009677 1.035165 0.645730 
3.304769 1.716398 0.769856 
3.336968 2.033712 0.833896 
3.341102 2.185296 0.844743 
3.341102 2.185296 0.844743 
2.138243 1.366936 0.756627 
-2.411231 -4.719814 0.426502 
-4.039418 2.719328 0.106161 
-4.061706 3.241550 0.261239 
-2.901181 -2.573850 0.905327 
-3.054758 -2.430297 0.937025 
-4.763340 3.277308 0.323426 
-3.805452 4.195744 0.478119 
-4.319474 -3.249857 0.833246 
-4.544176 -2.900173 0.886009 
-5.332883 3.485808 0.336778 
-4.487909 4.083310 0.492809 
-3.953325 5.011186 0.639313 
3.567883 1.923227 -2.978965 
3.120011 -0.860897 -5.288182 
6.832630 1.224225 0.191861 
3.586827 -1.935933 -0.088899 
6.121639 1.614677 0.402260 
5.809226 -0.025675 0.871348 
1.246975 -1.505536 -0.298158 
0.741646 -1.389749 -0.200842 
2.805224 -0.825287 0.190105 
2.805224 -0.825287 0.190105 
0.517902 -1.341569 -0.166242 
2.499431 -0.530584 0.239395 
-0.471992 -1.656053 -0.250069 
-0.658006 -1.716663 -0.270484 
-1.333431 -4.972318 0.168580 
0.419193 -0.765347 -0.088434 
3.053851 0.357590 0.431377 
-0.999731 -5.412324 -0.034576 
2.977013 0.514281 0.502493 
-1.037117 -5.099565 0.058851 
3.296001 0.993170 0.639758 
-1.390556 -5.143219 0.130011 
-2.669275 -5.416290 0.287880 
-2.361501 -2.376357 3.530447 
-4.866845 3.331388 0.330208 
-4.586083 3.792132 0.441569 
3.446194 -1.661302 -0.009653 
-0.720005 4.776856 -0.202732 
-1.366516 -1.724810 -7.032250 
6.661342 0.210302 0.076041 
0.088236 2.147360 -9.615859 
1.599894 -2.814578 -0.462562 
7.291397 2.906891 0.422351 
3.393022 -0.980201 0.199613 
-0.821361 -1.670541 -0.258143 
-0.956311 -1.546843 -0.221466 
2.376662 0.460603 0.505637 
-2.087153 -6.016625 0.053536 
-3.861070 2.884185 0.127225 
-4.435691 2.961285 0.198395 
-3.225753 4.470667 0.451958 
-3.201046 -2.560889 0.932110 
-4.090479 -3.224509 0.860963 
-4.108171 4.354159 0.537138 
-4.341617 4.201967 0.521416 
3.622860 -1.625073 -0.002309 
1.463131 -1.484467 -0.318739 
3.715086 -0.688311 0.247879 
4.608357 0.674384 0.494523 
2.693670 -0.617177 0.232536 
-2.663846 2.194022 -0.333782 
-0.108013 -1.489371 -0.207569 
2.041937 0.193705 0.379057 
2.567458 1.463476 0.793832 
-2.401617 -5.212026 0.327730 
-2.946739 -3.458937 0.665079 
-4.068280 3.667619 0.373596 
-5.079295 -3.537807 0.675560 
-5.052490 3.258614 0.305362 
6.095834 0.893931 0.307779 
3.016561 -1.094013 0.129947 
3.788566 0.781993 0.571870 
-1.594820 -5.598660 0.097128 
-2.302092 -5.953707 0.115890 
-3.475512 3.493792 0.225000 
-3.888985 -2.964996 0.897496 
-0.720005 4.776856 -0.202732 
0.882114 -1.612811 -0.242053 
0.882114 -1.612811 -0.242053 
3.209462 -0.664820 0.271641 
0.677922 1.619685 -0.069177 
2.662195 0.266356 0.426020 
2.371418 0.046269 0.396944 
-2.081232 -5.242890 0.276901 
-3.940338 2.771345 0.111737 
-3.756722 -3.474736 0.757732 
1.828926 -3.551026 -5.688092 
-0.081002 -2.986045 2.741190 
3.545398 1.287617 0.696524 
3.545398 1.287617 0.696524 
2.582692 0.643646 0.577477 
2.696696 1.247000 0.726204 
3.084333 0.783483 0.575689 
-4.122437 3.511998 0.364568 
-3.001152 0.822782 -6.506770 
-1.391388 -1.709313 -7.302675 
0.736606 -0.621283 -6.336840 
6.766000 -0.370360 -0.060694 
1.766589 -3.519924 -0.603167 
1.653800 -3.406741 -0.564669 
6.731297 -0.070857 -0.000518 
6.502563 -0.147537 0.050540 
1.547101 -3.253849 -0.530829 
0.221999 -4.619183 -0.302856 
1.132931 -3.576936 -0.415520 
-0.916362 -5.542881 -0.107115 
0.982970 -3.533862 -0.373778 
4.294483 -1.114674 0.147404 
6.016577 0.229034 0.259037 
6.904200 1.081554 0.134295 
1.920990 -1.892948 -0.512958 
0.428812 -3.064149 -0.302000 
0.251899 -3.143094 -0.293623 
0.251899 -3.143094 -0.293623 
1.013161 -2.453256 -0.345351 
3.719925 -0.980308 0.187139 
0.540232 -2.773017 -0.310728 
1.078870 -2.227062 -0.341780 
3.239759 -1.120475 0.138836 
1.041102 -2.095653 -0.325360 
1.041102 -2.095653 -0.325360 
5.912979 1.043151 0.382624 
4.163230 -0.226471 0.346298 
4.965452 0.725332 0.485467 
4.692441 0.585355 0.507329 
3.808171 0.110100 0.421704 
0.141525 -1.774868 -0.268991 
-2.179402 -4.551133 0.413319 
0.501198 -1.473948 -0.192242 
-4.865076 0.933909 -2.249720 
5.043364 1.315039 0.556667 
4.563611 0.948561 0.569161 
-2.470322 -4.497951 0.453128 
2.527914 -0.273741 0.317534 
-2.085386 -1.419291 -0.908384 
-0.820490 -1.869068 -0.308601 
-0.820490 -1.869068 -0.308601 
-2.647758 -4.416181 0.458423 
-2.647758 -4.416181 0.458423 
-2.351636 -4.149410 3.185039 
-1.425674 -2.155249 -0.358316 
-2.725340 -4.332332 0.479097 
5.866882 2.739040 0.399755 
1.731514 -0.007048 -8.152989 
4.976504 1.866635 0.616945 
4.777299 1.720955 0.629112 
-0.049935 -1.031597 -0.125333 
1.996812 0.021323 0.330935 
0.226480 -0.722507 -0.085014 
-1.769660 -1.998172 -0.323680 
5.138089 2.302650 0.599190 
5.154147 2.462995 0.545556 
2.115722 0.379633 0.480237 
4.127997 1.684848 0.717470 
2.389429 0.589412 0.543187 
2.304890 0.644744 0.560976 
2.461899 0.856569 0.622927 
-3.016447 -3.311645 0.738924 
-3.016447 -3.311645 0.738924 
3.360834 1.855740 0.787057 
-3.256749 -3.349173 0.744651 
2.886928 1.807565 0.819298 
3.469694 -0.690521 3.864717 
-4.075880 -3.583560 0.761291 
-0.306865 1.864614 0.471561 
3.370353 2.454925 0.857498 
-3.747606 -2.985998 0.881843 
3.088518 2.516074 0.879394 
-2.404733 -0.380294 0.000738 
-5.039138 -3.443174 0.735202 
-4.130215 -2.868451 0.934202 
0.379540 3.079358 -0.483334 
-4.412816 -2.735247 0.919700 
-1.022485 1.761138 -0.100956 
-4.988938 -2.933084 0.837679 
-3.096672 -0.156587 -0.049750 
-0.026695 3.277269 -0.473653 
-5.165776 -2.700211 0.869803 
-4.867680 -2.105990 0.951213 
-5.935435 -2.613254 0.744029 
-0.505932 3.579742 -0.461790 
-2.577580 1.817851 -0.393567 
-0.205369 3.929016 -0.392659 
-0.834912 3.629823 -0.469096 
-3.073228 1.919602 -0.272908 
-3.073228 1.919602 -0.272908 
-5.019194 1.161172 -0.353137 
-1.873653 4.140956 -0.465896 
-4.705065 1.485518 -0.216785 
-1.283952 4.515772 -0.233740 
-4.771811 1.627098 -0.175778 
-1.731964 4.977769 -0.137544 
-5.300532 1.978990 -0.079399 
-4.898303 2.198260 -0.005703 
-1.679797 5.410409 -0.009358 
-1.624081 5.537490 0.016549 
-4.978356 3.087096 0.278684 
-2.060983 5.932278 -0.025373 
-4.503672 3.603532 0.397382 
-4.087907 4.280982 0.527638 
-2.816470 5.454557 0.609258 
-2.785101 5.556199 0.610213 
-2.725738 5.743175 0.613111 
-5.250299 3.995062 0.444359 
-4.997447 4.230837 0.494772 
-4.172001 4.760648 0.613630 
-3.452601 5.522385 0.670651 
-3.728298 5.459675 0.666752 
-3.825768 5.399254 0.651536 
-4.202050 5.346873 0.662872 
5.673518 1.058865 -0.522693 
0.104385 2.235419 -11.446829 
-2.218337 -3.184477 -6.038175 
-0.217754 -5.060151 -0.212879 
-0.255502 -4.529886 -0.162676 
0.329468 -3.809892 -0.266981 
5.964110 0.218833 0.234919 
5.964110 0.218833 0.234919 
4.426658 -0.802421 0.218457 
6.443518 0.796917 0.231410 
4.491879 -0.639692 0.250448 
4.491879 -0.639692 0.250448 
3.409275 -1.271428 0.111194 
0.645857 -2.839955 -0.305629 
3.640212 -1.074469 0.157250 
3.640212 -1.074469 0.157250 
3.529942 -1.137704 0.140694 
3.529942 -1.137704 0.140694 
1.315175 -2.156774 -0.368871 
1.315175 -2.156774 -0.368871 
5.162384 -0.002609 0.335348 
3.060615 -1.286231 0.071460 
6.551864 1.326359 0.263745 
3.399159 -1.007439 0.157023 
0.958738 -1.955283 -0.305883 
-2.779781 -4.156359 1.887392 
-0.069187 -2.444150 -0.422246 
-1.042821 -2.974913 -0.606127 
-2.254174 -5.146665 0.318672 
5.960495 1.301238 0.402444 
5.960495 1.301238 0.402444 
6.567441 1.975285 0.279976 
4.775527 0.338937 0.439267 
6.388481 2.087240 0.328537 
0.967290 -1.291451 -0.200507 
2.908596 -0.266279 0.330418 
-1.076791 -2.352010 -0.430649 
5.357857 1.780767 0.545770 
4.813976 1.270380 0.599174 
4.813976 1.270380 0.599174 
-1.149683 -2.055316 -0.344879 
-1.149683 -2.055316 -0.344879 
3.611935 0.663410 0.535889 
4.797053 1.896255 0.634076 
4.886094 1.990592 0.632470 
-2.089130 -2.023528 -0.307618 
4.349642 1.750489 0.685094 
3.870505 1.401556 0.689262 
4.477383 1.995349 0.677288 
1.422794 0.702762 0.292443 
-2.751415 -3.135456 0.722674 
3.336968 2.033712 0.833896 
3.291994 2.557672 0.884187 
-5.206509 -3.761759 0.602349 
-2.722318 -2.055048 0.929809 
-3.838564 -2.785546 0.929551 
-1.986058 -0.002470 0.055385 
-1.921209 0.184897 0.071620 
-3.321939 -1.466865 -1.711141 
-2.647751 -0.059961 0.005207 
-4.885831 -2.992114 0.832681 
-0.159159 2.872091 -0.570481 
-3.427405 -1.951479 1.030805 
-0.376009 0.711829 10.870504 
-0.532984 3.124654 -0.524183 
-4.076192 -1.859031 1.035884 
-4.076192 -1.859031 1.035884 
-1.458816 3.363898 -0.604862 
-1.282813 3.449124 -0.536362 
-0.047113 4.488257 -0.357586 
-0.295517 4.262861 -0.357473 
-1.321432 3.920794 -0.385573 
-2.743679 2.807001 -0.285003 
-4.781862 1.293041 -0.272786 
-5.238099 1.216691 -0.389249 
-0.262207 5.142439 -0.235546 
-0.973888 5.270590 -0.073721 
-4.052355 2.605225 0.081844 
-3.928761 3.023758 0.153376 
-1.681242 5.255328 -0.063588 
-5.708961 2.295573 -0.070071 
-5.605957 2.343823 -0.006365 
-4.440727 2.968087 0.216622 
-4.988689 2.807784 0.205550 
-5.793092 2.587641 0.045958 
-5.497754 2.861220 0.176480 
-5.569670 2.990410 0.213976 
-4.983922 3.558693 0.381298 
-4.983922 3.558693 0.381298 
-5.179966 3.824617 0.410716 
-4.312407 4.446875 0.567502 
-3.358677 5.179429 0.614543 
-5.644850 3.990428 0.383622 
-3.552607 5.775665 0.707360 
-4.027415 5.428300 0.669955 
1.209222 3.666860 -11.879491 
0.162086 -4.992687 -0.341664 
-0.440516 -5.408756 -0.219169 
1.903866 -2.671961 -0.517814 
1.599894 -2.814578 -0.462562 
4.107558 -1.423061 0.065281 
0.883238 -3.241519 -0.358898 
6.949283 0.926749 0.108912 
-0.174752 -4.152044 -0.200502 
4.074171 -1.198458 0.125702 
3.733703 -1.349723 0.106512 
5.957324 0.216828 0.247468 
5.957324 0.216828 0.247468 
0.805131 -2.991816 -0.348531 
0.805131 -2.991816 -0.348531 
2.775084 -1.684035 -0.078259 
0.299839 -3.348110 -0.251733 
4.135355 -0.878922 0.204573 
1.623856 -1.991835 -0.440873 
2.451463 -1.552129 -0.079741 
6.473275 1.490839 0.303593 
3.907564 -0.505720 0.297891 
5.992412 1.108803 0.360603 
-0.146197 -2.228638 -0.392901 
0.977630 -1.462116 -0.226586 
-0.590220 -2.374870 -0.444192 
-1.331938 -2.742402 -0.505567 
-0.808349 -2.191260 -0.381479 
5.623557 1.899909 0.509956 
-1.002923 -2.032756 -0.345865 
-1.273558 -2.165058 -0.376224 
0.960777 -0.424144 -0.075659 
-2.040959 -2.176217 -0.347974 
-0.429765 -1.080522 -0.135644 
-0.429765 -1.080522 -0.135644 
-1.986361 -1.890554 -0.284883 
-0.431565 -0.866965 -0.099358 
0.009955 -0.446311 -0.043272 
0.009955 -0.446311 -0.043272 
2.092121 0.693665 0.549990 
-3.832810 -3.911316 0.631225 
-4.471433 -3.825678 0.703204 
-3.950421 -3.239611 0.850602 
-2.160807 -0.435943 0.001134 
-3.197403 -2.557965 0.927361 
-2.523874 -0.576065 -0.039234 
2.916064 2.517394 0.912231 
2.738686 2.404082 0.878154 
-5.282742 -3.190936 0.725723 
-0.814752 -1.608528 10.082292 
-0.305596 3.430291 -0.469492 
-5.801940 -2.589205 0.761390 
-5.360885 -2.144888 0.887501 
-3.708184 1.331287 -0.302804 
-3.708184 1.331287 -0.302804 
-3.249877 1.830902 -0.261457 
-0.601307 4.296002 -0.302247 
-1.323841 3.922594 -0.378416 
-4.417939 1.601517 -0.187286 
-0.257424 5.137504 -0.251219 
-0.410567 5.020546 -0.245338 
-1.144955 4.467535 -0.256295 
-1.653674 4.451707 -0.289027 
-4.192070 2.679377 0.121879 
-5.433872 2.380029 0.013479 
-3.441237 4.290052 0.450960 
-5.777274 3.147972 0.166007 
-5.184656 3.465147 0.360082 
1.164029 -0.163324 8.646874 
-3.699483 4.922405 0.623945 
-3.318498 5.334800 0.645151 
-0.299799 -5.617459 -0.333210 
5.892928 -1.121768 0.240312 
6.924109 0.224702 0.010268 
-0.584926 -4.849874 -0.063500 
5.987603 0.018755 0.196818 
5.960381 0.414471 0.285164 
7.175695 1.880852 0.021105 
0.493506 -2.948569 -0.302824 
-1.850457 -5.347043 0.220681 
4.374786 -0.480822 0.298000 
1.546738 -1.762409 -0.379299 
5.313998 0.561984 0.418173 
4.239000 -0.105935 0.379823 
0.080189 -2.103206 -0.337865 
0.080189 -2.103206 -0.337865 
-0.818398 -2.373181 -0.429250 
-0.818398 -2.373181 -0.429250 
-0.315057 -1.505935 -0.208623 
5.212054 1.927634 0.566310 
-0.454266 -1.330821 -0.190600 
-1.598085 -1.695559 -0.246016 
-2.006802 -1.680152 -0.248378 
1.794198 0.565621 0.442584 
3.839445 1.839868 0.758290 
-2.428030 -2.324527 0.823057 
3.152697 2.317845 0.865825 
-5.282736 -3.188621 0.728200 
-4.792103 -2.551343 0.918868 
-6.030011 -2.967622 0.654891 
-6.251725 -3.038771 0.599180 
0.105385 3.673522 -0.514430 
-0.326664 3.663438 -0.413615 
-0.800648 4.322685 -0.301102 
-0.317201 4.795586 -0.292250 
-1.555001 4.619423 -0.226438 
-4.884289 1.832051 -0.096239 
-4.708708 1.954010 -0.035449 
-2.822363 5.290157 0.572690 
-3.489026 5.294003 0.637727 
-1.356487 -1.752611 -6.682850 
3.916875 -1.506775 0.040987 
1.697580 -2.437655 -0.485302 
1.550461 -2.084158 -0.416976 
4.060661 -0.753758 0.248897 
4.486471 -0.172723 0.357578 
5.713008 1.592591 0.474809 
-1.379092 -2.465213 -0.432436 
-2.262822 -4.327171 0.471725 
-2.380107 -4.063056 0.450684 
5.021352 1.723396 0.571840 
0.729973 -0.311445 -0.052429 
-1.399434 -1.479285 -0.154399 
4.528009 2.130327 0.698116 
3.569344 1.789667 0.771226 
-2.839918 -3.198274 0.707595 
-2.839918 -3.198274 0.707595 
-2.469486 -2.569440 0.736367 
-0.172847 3.178576 -0.509324 
-1.418148 4.009339 -0.374298 
-3.753444 2.124363 -0.128281 
-5.045668 2.273345 0.037153 
-5.622317 2.592414 0.055497 
-5.847586 2.506787 0.031542 
-5.626557 3.162444 0.246556 
-3.354684 4.686313 0.513170 
-1.887009 -5.905070 0.034322 
2.742082 -1.403431 -0.022408 
5.869644 2.007084 0.500718 
-0.286374 -1.081663 -0.137779 
-0.286374 -1.081663 -0.137779 
-2.962424 -3.693485 0.476155 
-1.011353 3.739144 -0.418052 
-3.977814 1.201887 -0.322775 
-3.940338 2.771345 0.111737 
-5.204963 2.979867 0.236247 
-3.749615 4.340697 0.490617 
0.566263 -1.676592 -0.241496 
-1.885589 -4.475391 0.396288 
3.954192 0.100521 0.425146 
3.954192 0.100521 0.425146 
3.109360 -0.074530 0.340371 
2.715265 -0.180494 0.340652 
2.715265 -0.180494 0.340652 
4.007796 1.062396 0.623796 
4.007796 1.062396 0.623796 
0.126363 -0.977301 -0.109279 
0.126363 -0.977301 -0.109279 
4.282790 1.480472 0.631434 
4.282790 1.480472 0.631434 
2.582692 0.643646 0.577477 
-0.075503 -0.106962 -0.015685 
-0.401142 3.980207 -0.408698 
-0.401142 3.980207 -0.408698 
0.169670 4.541150 -0.387627 
-3.553435 1.720101 -0.241162 
-0.414243 4.618014 -0.241212 
5.589344 0.268446 0.308428 
5.589344 0.268446 0.308428 
6.667879 1.596170 0.184597 
4.822148 0.065378 0.383631 
4.941654 0.703201 0.514323 
3.418146 0.316568 0.447109 
0.583146 -1.096530 -0.131144 
-1.153936 4.756387 -0.199646 
-0.558812 5.264663 -0.138458 
-4.122437 3.511998 0.364568 
-3.696577 3.894860 0.344937 
-1.802757 6.020452 0.025388 
-4.307647 0.454522 -6.017428 
4.365907 0.535920 0.457920 
4.365907 0.535920 0.457920 
2.226734 -0.293934 0.328301 
-4.667585 -3.465835 0.761165 
-5.677004 -3.801370 0.590296 
-4.526722 -2.274804 0.934692 
-4.764478 3.117695 0.250879 
-4.764478 3.117695 0.250879 
6.949897 -1.053243 -0.556051 
-3.896035 4.821851 0.421838 
-4.096200 2.148389 -0.140955 
0.490598 1.724568 0.440177 
