ply
format ascii 1.0
element vertex 618
property float x
property float y
property float z
end_header
3.990670 1.081085 0.401800 
-4.082814 -0.890604 -0.216507 
3.626158 0.698437 0.428271 
-5.167502 3.337441 0.454202 
0.705170 -1.185664 -0.390812 
-1.014207 0.019098 -0.293361 
0.790268 -1.466414 -0.466051 
2.856073 -0.217261 0.205432 
-1.440688 -6.894413 0.041293 
-2.021019 -4.374404 0.798252 
-4.275253 4.582630 0.632594 
-3.401244 -0.524257 -0.112560 
5.275588 0.117090 0.009963 
0.832358 -2.107838 -0.592325 
4.856862 0.002607 0.097893 
4.881733 0.547880 0.183881 
4.881733 0.547880 0.183881 
0.022753 -1.515671 -0.384172 
-0.019223 -1.245639 -0.340431 
4.342218 0.568592 0.323774 
-0.955874 -1.409890 -0.327976 
-0.955874 -1.409890 -0.327976 
3.143060 1.331769 0.583445 
3.143060 1.331769 0.583445 
-2.321301 -4.417592 0.868603 
-5.316259 3.106291 0.397183 
-4.430872 4.030853 0.534697 
-3.735397 -4.946228 0.872439 
-5.085355 3.853884 0.566592 
-4.625338 4.775483 0.721054 
3.516819 -2.356322 -0.472045 
5.739916 1.253499 0.056428 
0.584409 -1.600213 -0.450643 
2.736980 -1.415862 -0.116918 
0.379730 -1.570086 -0.416790 
2.401034 -1.154816 -0.054394 
-0.586800 -1.856887 -0.463375 
0.232396 -0.996219 -0.315607 
2.856073 -0.217261 0.205432 
-5.161593 3.576773 0.511312 
3.382267 -2.126998 -0.383301 
-4.223842 -0.978465 -0.241891 
1.505799 -2.915880 -0.807072 
6.663631 2.780415 0.028120 
-0.926384 -1.864600 -0.451527 
-1.063975 -1.767672 -0.419248 
-4.732116 4.136652 0.593700 
-4.949329 3.974693 0.574502 
3.626671 -1.330933 -0.097296 
4.423297 -0.036065 0.162565 
2.604012 -1.221941 -0.083830 
-0.231325 -1.711425 -0.426842 
-1.576650 -6.818071 0.086833 
-5.612664 3.087391 0.393410 
5.725340 0.458854 -0.077149 
2.951662 -1.649581 -0.198623 
3.652987 0.004281 0.270113 
-3.072219 -5.002845 0.845298 
0.749504 -1.767137 -0.517198 
3.138812 -1.304211 -0.083098 
0.381251 3.511300 -0.695817 
-1.269769 -6.768871 0.026827 
3.408156 0.458756 0.411354 
3.408156 0.458756 0.411354 
2.495605 -0.194594 0.332607 
2.596604 0.320152 0.503530 
2.937568 -0.004760 0.276002 
-4.369146 -0.893934 -0.264180 
-2.007846 -0.039598 -0.034091 
6.343814 -0.258172 -0.434156 
-1.290349 -2.492505 -5.205242 
5.732256 -0.193198 -0.186989 
6.405639 0.950521 -0.285779 
0.492320 -3.446492 -0.588585 
0.339567 -3.565492 -0.564886 
0.944881 -2.656840 -0.638521 
0.553483 -3.085527 -0.595965 
0.975089 -2.398796 -0.626927 
0.929437 -2.255777 -0.608261 
0.929437 -2.255777 -0.608261 
5.562918 0.578214 -0.020065 
4.046763 -0.921000 0.006053 
4.756842 0.047208 0.132326 
3.694575 -0.611665 0.108933 
0.022545 -1.975680 -0.504118 
0.401341 1.572676 10.090742 
4.786148 0.680878 0.211334 
4.377316 0.218005 0.232433 
2.438877 -0.930674 0.027295 
-1.499869 -2.314160 -0.549331 
5.285557 2.603984 0.050717 
-0.201438 -1.278540 -0.329048 
0.039948 -0.962662 -0.296475 
4.742161 1.834378 0.245492 
4.707526 2.033981 0.245334 
3.913863 0.905451 0.404004 
3.184540 0.987277 0.539961 
2.738579 0.868700 0.587004 
-2.288226 1.590482 -1.117103 
3.137629 1.639118 0.603081 
2.863112 1.644427 0.662781 
-3.318845 -4.923757 0.861987 
-3.615480 -4.794989 0.909333 
-3.298378 -0.417441 -0.100369 
-1.091807 4.388126 -0.694562 
-5.227086 -4.454153 0.799365 
-3.320194 2.452769 -0.509451 
-1.322968 5.070461 -0.597892 
-4.177692 3.647673 -0.383848 
-2.811753 6.285041 -0.124657 
-2.353156 0.817341 6.342945 
-4.700813 4.062537 0.588445 
-5.847968 3.796077 0.546572 
-4.195634 5.394793 0.715280 
6.039807 4.215896 0.265592 
0.541296 -4.358777 -0.576404 
4.329284 -1.412699 -0.159061 
6.048631 0.495931 -0.193553 
3.350273 -1.832669 -0.243152 
0.670043 -3.152789 -0.602954 
3.565418 -1.661297 -0.202486 
3.565418 -1.661297 -0.202486 
3.459626 -1.711236 -0.221487 
3.459626 -1.711236 -0.221487 
1.179333 -2.272384 -0.665078 
1.179333 -2.272384 -0.665078 
4.984030 -0.610715 -0.048736 
2.981624 -1.820388 -0.265425 
6.099204 1.082673 -0.138094 
0.832358 -2.107838 -0.592325 
-1.437401 -6.739329 0.093079 
5.598405 0.877744 0.013077 
4.614413 -0.336415 0.083004 
0.790268 -1.466414 -0.466051 
2.818924 -0.930222 0.019704 
-1.165795 -2.451707 -0.638101 
5.016044 1.261004 0.196937 
4.587574 0.581595 0.246608 
4.587574 0.581595 0.246608 
-1.236497 -2.225157 -0.529379 
3.474296 -0.103809 0.238077 
4.496068 1.277947 0.306286 
4.565593 1.380308 0.311596 
-2.144432 -2.238743 -0.468930 
4.109677 1.016382 0.384469 
3.703694 0.587389 0.412790 
4.194117 1.299422 0.394795 
3.183523 1.197043 0.577492 
3.059687 1.735761 0.629390 
-3.034230 -4.848721 0.893207 
-2.171653 -0.331689 -0.047023 
-2.132937 -0.133481 -0.032442 
-4.148450 -4.132808 0.998058 
-2.847973 -0.370790 -0.069899 
-4.082185 -4.994829 0.844575 
-1.215181 3.957070 -0.751517 
-2.714839 -3.994563 1.001078 
-1.236874 5.716497 -0.569847 
-1.447401 5.416388 -0.553863 
-0.925208 -0.821967 7.547635 
-4.538420 3.037817 0.201531 
-5.002287 2.878214 0.284333 
-5.534267 2.693304 0.265114 
-5.549554 3.357031 0.467082 
-4.927149 4.204254 0.636103 
-6.283584 3.859890 0.479106 
0.939141 -3.574572 -0.664782 
6.453626 0.788127 -0.314875 
3.990513 -1.767161 -0.253234 
2.268298 1.371286 -5.962643 
0.826149 -3.304451 -0.639269 
0.826149 -3.304451 -0.639269 
3.816429 -1.171547 -0.048812 
0.824180 -1.606601 -0.501481 
-0.686867 -2.461436 -0.659716 
-1.391444 -2.815306 -0.713052 
-0.907787 -2.312521 -0.612500 
5.222790 1.453359 0.129582 
-1.098080 -2.185529 -0.546608 
-1.352442 -2.313350 -0.554711 
-0.579495 -1.326932 -0.339426 
-0.579495 -1.326932 -0.339426 
-2.059942 -2.119681 -0.448529 
-0.585474 -1.123866 -0.281905 
-0.194759 -0.691633 -0.238829 
1.999259 -0.089438 0.319476 
-1.803099 -5.050211 2.232893 
-3.114589 -5.255217 0.789324 
-2.308699 -0.778983 -0.116151 
-2.444214 -4.556250 0.864725 
2.534533 1.482119 0.690320 
4.524520 -0.120732 0.142030 
-1.385701 4.538676 -0.657214 
-5.107297 -4.433558 0.783830 
-4.647531 -4.097415 0.968287 
-3.909503 2.241136 -0.316320 
-1.724919 5.378175 -0.485183 
-2.422870 5.017036 -0.546644 
-1.484158 6.386681 -0.467491 
-4.770571 2.697111 0.139095 
-4.103463 4.211078 0.474691 
-6.409220 3.068014 0.283821 
-4.043697 5.206203 0.689648 
5.701174 -0.414945 -0.218511 
5.663511 -0.045182 -0.127234 
0.538801 -3.327784 -0.575957 
-1.070380 -6.802358 -0.058218 
4.260807 -1.136467 -0.078247 
1.337207 -1.785582 -0.678404 
4.122677 -0.800162 0.030982 
-0.022128 -2.265824 -0.591405 
-0.901047 -2.458354 -0.649883 
-0.901047 -2.458354 -0.649883 
4.869946 1.369981 0.269005 
-0.586326 -1.561586 -0.382604 
-1.641297 -1.921570 -0.368503 
3.640470 1.058719 0.461499 
2.953376 1.455735 0.627260 
-4.012558 -4.567453 0.926559 
-5.315048 -4.769210 0.701218 
-5.539584 -4.772857 0.668565 
-1.427229 4.794086 -0.646951 
-5.238752 2.049815 -0.018045 
-4.101285 -1.163180 -0.264419 
3.841020 -2.021330 -0.340289 
4.366606 -0.863367 0.014504 
5.348926 1.133612 0.097371 
-1.454284 -2.576991 -0.650513 
-1.497500 -5.987534 0.278567 
4.236025 1.492975 0.379358 
3.391954 0.938823 0.511276 
-1.227649 4.276678 -0.681058 
-5.596419 2.286875 0.084246 
-6.195289 3.058931 0.345738 
5.435358 1.637644 0.071716 
-0.431356 -1.322176 -0.335719 
-0.431356 -1.322176 -0.335719 
-2.096725 4.855497 -0.585859 
0.443525 -1.883866 -0.486943 
-1.152067 -6.015448 0.143074 
3.837490 -0.625156 0.100127 
2.627201 -0.836497 0.037474 
3.852831 0.274347 0.324193 
-0.035393 -1.218620 -0.337050 
-0.035393 -1.218620 -0.337050 
4.066409 0.733895 0.364473 
2.495605 -0.194594 0.332607 
-1.544698 5.092300 -0.575107 
-1.038637 5.882199 -0.645425 
-4.177630 2.069047 -0.283359 
5.342938 -0.279456 -0.065286 
4.658926 -0.603627 0.009949 
4.749352 0.044934 0.114551 
0.416456 -1.312862 -0.400845 
4.213865 -0.181847 0.200981 
4.213865 -0.181847 0.200981 
-3.799494 -4.296679 0.950030 
-5.333709 2.974743 0.346085 
-4.411714 -0.234248 -11.420420 
-3.483988 0.532992 -10.883644 
-0.334711 -5.134213 -1.188904 
0.473375 -4.870513 -0.592259 
0.182106 -4.802075 -0.538741 
1.090984 -3.604850 -0.701477 
1.090984 -3.604850 -0.701477 
-3.640915 0.149593 -6.807620 
4.571720 -1.516001 -0.215709 
0.788437 -3.457486 -0.629888 
0.009154 -3.970378 -0.525153 
5.360010 -0.914876 -0.212363 
1.119949 -3.008245 -0.741663 
0.880289 -3.004265 -0.662961 
4.068166 -0.782438 0.035409 
4.068166 -0.782438 0.035409 
-1.458460 -3.139567 -0.855678 
5.002754 0.036177 0.061563 
4.482602 0.058879 0.179868 
0.672918 -1.581884 -0.465607 
-2.984955 1.065817 -7.239460 
3.054911 -0.501838 0.077116 
4.388253 0.340709 0.257571 
4.479235 0.443058 0.258357 
0.471096 -1.384816 -0.396651 
-2.498440 2.380971 -7.059967 
4.928970 1.007001 0.209682 
4.928970 1.007001 0.209682 
5.566924 1.548492 0.056796 
5.622585 1.644248 0.039291 
-2.514397 -4.092026 0.959661 
5.809724 2.055989 -0.041887 
4.620999 1.109261 0.287602 
-0.833277 -1.614664 -0.388006 
-0.833277 -1.614664 -0.388006 
4.981518 1.599610 0.201923 
5.419824 2.021767 0.084883 
-0.573399 2.877452 -7.035113 
4.854567 1.841815 0.234676 
4.854567 1.841815 0.234676 
5.281855 2.232973 0.097800 
-5.510123 -4.848567 0.653072 
-0.425859 0.919872 -1.446060 
4.901069 1.972626 0.208437 
3.983760 1.225457 0.416774 
3.983760 1.225457 0.416774 
-3.508139 -3.807531 1.053452 
3.493578 1.236751 0.523611 
3.736177 1.513817 0.476470 
-5.044792 -4.131657 0.872810 
4.599244 2.502084 0.197676 
-3.540343 -3.235879 1.060157 
-4.686602 -3.827611 0.969508 
6.401709 3.668201 0.223305 
2.377113 0.855747 0.619161 
3.102993 1.447869 0.602274 
3.102993 1.447869 0.602274 
4.114026 2.582702 0.256890 
-2.474751 -0.884494 -0.125409 
-4.266942 -2.872482 0.929639 
-2.342426 -0.717064 -0.102186 
2.942630 1.935863 0.646016 
1.714959 1.328292 0.541035 
-2.553153 -0.719703 -0.095397 
-4.081285 -1.392431 -0.286679 
-4.081285 -1.392431 -0.286679 
-3.091551 -0.814097 -0.128250 
-3.091551 -0.814097 -0.128250 
-1.761526 0.524728 -0.036590 
-1.853030 0.543553 -0.037301 
-2.239156 0.539214 -0.021136 
-0.242807 1.500131 3.493764 
-2.578628 0.471536 -0.019164 
-2.321294 0.680104 -0.040187 
-3.377704 0.078132 -0.097263 
0.691393 2.937601 -0.471155 
-4.124546 0.067257 -0.186426 
-2.205881 1.310001 -0.161265 
-4.501920 0.018908 -0.290207 
-4.501920 0.018908 -0.290207 
0.301803 3.376532 -0.680651 
-3.346535 0.775012 -0.189297 
-0.139038 3.448038 -0.690569 
-2.342488 2.830002 -1.504916 
-0.950800 4.205974 -0.708748 
-0.950800 4.205974 -0.708748 
-2.368565 3.480153 -0.700718 
-0.799147 4.477673 -0.719735 
-1.384692 4.233871 -0.708505 
-0.831245 4.595076 -0.707372 
-3.872178 2.373460 -0.311929 
-4.101245 2.444893 -0.244951 
-1.528229 4.598703 -0.659486 
-1.322968 5.070461 -0.597892 
-2.389134 3.411951 1.028752 
-1.870170 5.604338 -0.407723 
-1.620938 6.071594 -0.423638 
1.107619 1.831172 8.004853 
-5.317249 3.745380 0.554570 
-1.392393 -0.660281 8.542196 
-2.311441 6.531125 -0.093817 
-2.847022 6.487217 -0.067480 
-3.084916 1.615096 5.778644 
-6.157937 4.674463 0.546180 
0.726641 -4.979176 -0.674864 
-1.820534 -7.010356 0.057225 
1.342392 -3.871620 -0.786219 
0.546951 -2.567210 -1.883403 
-1.294278 -2.641820 -4.276895 
0.447875 -4.091950 -0.551448 
3.869004 -2.123086 -0.387692 
1.208095 -3.313875 -0.731782 
4.217545 -1.138691 -1.197150 
4.787339 -1.424870 -0.209728 
5.240970 -1.110526 -0.229621 
3.678657 -1.887185 -0.278347 
2.170199 -1.405314 -3.539689 
1.242259 -2.418461 -0.674330 
1.242259 -2.418461 -0.674330 
-1.250087 -3.523252 -1.023510 
0.975089 -2.398796 -0.626927 
3.361115 -1.025162 -0.003574 
0.893014 -1.950422 -0.596787 
-0.288220 -2.537062 -0.736142 
5.057045 1.917287 -1.270132 
0.680319 -2.075053 -0.560047 
-2.576324 -5.091003 0.730917 
-2.640541 -4.595923 0.876963 
4.992492 0.912414 0.196146 
4.992492 0.912414 0.196146 
4.992492 0.912414 0.196146 
-2.458675 -4.196524 0.926467 
5.538915 1.747156 0.055084 
-0.019223 -1.245639 -0.340431 
4.940458 1.721822 0.214009 
3.813968 1.341593 0.466163 
-2.775322 -1.880264 -0.327455 
-3.745519 -3.614289 1.089678 
3.550995 1.440782 0.502653 
4.818869 2.669649 0.154694 
-2.734392 -1.583875 -0.261168 
-0.981123 -3.283306 3.557106 
4.603935 2.635532 0.167405 
4.603935 2.635532 0.167405 
-2.969519 -1.523239 -0.247690 
4.346392 2.773956 0.207537 
-3.254061 -1.473241 -0.242439 
-2.192655 -0.630775 -0.087565 
2.786518 1.777723 0.667455 
2.271300 1.425981 0.761645 
1.924789 1.387579 0.570438 
2.861778 2.170384 0.642057 
-4.364712 -1.116318 -0.284745 
-4.566162 -1.150379 -0.329981 
-1.860265 0.311686 -0.037425 
-1.860265 0.311686 -0.037425 
-3.298378 -0.417441 -0.100369 
-4.466447 -0.099852 -1.142607 
-2.819737 0.233991 -0.089252 
-4.229962 -0.403345 -0.205368 
-3.119825 0.417364 -0.064134 
-4.122042 0.078647 -0.172351 
0.440487 3.657348 -0.717432 
-4.017312 1.570821 -0.443038 
-0.558563 3.966819 -0.713551 
-3.180773 2.207312 -0.550565 
-3.918131 1.669761 -0.431925 
-3.433654 2.255925 -0.466022 
-1.447401 5.416388 -0.553863 
-5.641498 3.666686 0.541593 
-4.500864 4.569178 0.664939 
-2.664026 6.690668 -0.031492 
-5.127654 4.559757 0.694623 
-6.516258 4.070502 0.436558 
-5.169036 5.125218 0.736058 
-3.990416 5.961909 0.714835 
-0.943635 0.977987 10.079640 
-5.029136 -0.103272 6.822666 
-0.164888 2.663822 9.696755 
0.012841 2.997712 -12.551974 
-0.245993 -5.535584 -0.257522 
-0.419292 -5.448685 -0.172843 
-0.999789 -6.030868 0.091017 
0.541296 -4.358777 -0.576404 
0.176323 -4.347496 -0.509312 
4.028132 -1.948747 -0.320614 
5.098062 -1.141659 -0.204719 
0.289530 -3.343073 -0.579581 
0.585366 -2.954213 -0.598659 
0.585366 -2.954213 -0.598659 
-1.395239 -3.511621 -1.002827 
5.500365 0.135568 -0.060695 
5.549512 0.316413 -0.060218 
5.420651 0.687081 0.051194 
3.431718 -0.263190 0.186457 
5.557898 1.347799 0.054935 
5.557898 1.347799 0.054935 
1.704757 -0.876914 -0.091229 
-3.480691 -4.832951 0.898302 
-2.666578 -4.183403 0.964575 
-2.501078 -3.450305 0.969447 
3.383041 0.672371 0.462434 
6.552468 2.944767 0.073905 
-4.686061 -4.472546 0.877467 
-0.674462 -0.979144 -0.258946 
1.446537 -0.015927 0.160388 
-2.465763 -1.948882 -0.358915 
0.005560 -0.491055 -0.233804 
-3.779774 -3.789126 1.049754 
-3.779774 -3.789126 1.049754 
-3.727685 -3.614193 1.061395 
-3.877018 0.078815 -2.643516 
4.616784 2.207306 0.249149 
4.270985 1.983032 0.341954 
-5.323309 -4.034639 0.815091 
-4.417316 -3.551524 1.011365 
-4.608388 -3.651572 0.992209 
2.668728 1.369131 0.649119 
4.152087 2.764345 0.224623 
4.152087 2.764345 0.224623 
1.801970 1.520449 0.559228 
2.551688 2.019607 0.681174 
-3.809096 -0.934894 -0.191403 
-1.991305 0.132123 -0.035931 
-2.704052 0.357308 -0.046575 
-2.949182 0.382669 -0.072963 
-1.910790 2.812412 -0.685038 
-3.610827 2.693232 -0.348955 
-0.916928 4.791540 -0.705850 
-3.933017 2.572122 -0.269032 
-1.327655 5.349728 -0.571876 
-6.172994 2.027570 -0.093745 
1.088272 1.201320 8.151308 
-5.794129 2.329440 0.095397 
-2.305205 6.050931 -0.206747 
-6.473985 3.221801 0.321282 
-2.440185 6.197726 -0.145046 
-5.636489 3.668462 0.536425 
-6.532844 2.620316 1.420341 
-4.135377 4.865133 0.584577 
-2.742916 6.565086 -0.070864 
-6.053186 4.006311 0.528876 
-5.815210 4.553589 0.623468 
-4.539383 5.750495 0.745477 
1.578827 2.069433 11.697968 
-1.650061 -6.584812 0.160756 
-1.990861 -6.649523 0.141863 
-0.140357 -4.335920 -0.464532 
4.607783 -1.339069 -0.192224 
2.906947 0.434610 -0.883823 
0.296938 -3.330712 -0.571784 
1.079479 -2.538473 -0.658782 
-1.396030 -3.507517 -0.995055 
2.979589 -1.143167 -0.030631 
4.727966 0.272140 0.172872 
-3.481596 -4.832606 0.900294 
-3.865710 -4.821239 0.895323 
0.232396 -0.996219 -0.315607 
-5.756288 -5.089138 0.473746 
-2.495479 -3.447019 0.965731 
-2.299407 -2.119960 -0.397872 
-2.689751 -3.494635 0.984879 
1.977556 0.271512 0.469230 
5.044308 2.736504 0.116645 
2.115319 1.301412 0.650168 
3.160210 2.054477 0.583397 
-1.649490 0.265760 -0.001403 
-1.649490 0.265760 -0.001403 
-3.106294 -0.373391 -0.078129 
-1.936489 1.144490 -0.112894 
-0.454153 3.780052 -0.709095 
-5.065656 1.106726 -0.522780 
-4.068025 1.732459 -0.391033 
-1.215181 3.957070 -0.751517 
-3.608756 2.691642 -0.354779 
-3.236837 3.347745 -0.752831 
-1.427229 4.794086 -0.646951 
-1.287539 5.287789 -0.586888 
-2.255448 5.109996 -0.497737 
-6.082302 4.276724 0.550448 
-5.440335 4.945274 0.684798 
-4.335276 5.921171 0.740705 
-0.541028 -5.965601 -0.100367 
4.932293 -1.602811 -0.253975 
0.281101 -4.040414 -0.538923 
0.545481 -2.622286 -0.582689 
6.068484 0.720451 -0.152838 
0.043752 -1.799820 -0.451257 
-0.653753 -2.099177 -0.540648 
-4.864078 -5.094288 0.724568 
-2.905183 -3.839949 1.006988 
-5.092692 -4.829678 0.724458 
-5.861208 -4.861640 0.561471 
-5.257036 -4.308988 0.827650 
3.235930 1.596995 0.585482 
-3.079779 -1.372738 -0.221654 
2.745308 1.932158 0.681904 
-2.919172 -0.871819 -0.133750 
-3.242813 -0.749675 -0.131910 
-4.105213 -0.604693 -0.202214 
-4.105213 -0.604693 -0.202214 
-4.394731 -0.643893 -0.243213 
-3.738590 1.678107 -0.442343 
-0.952810 3.964472 -0.729601 
-4.821765 1.293412 -0.428927 
-5.282495 1.197345 -0.484572 
-0.822853 4.271664 -0.708569 
-1.227649 4.276678 -0.681058 
-1.877447 -1.544673 5.422765 
-1.200005 4.957426 -0.634983 
-2.183504 4.533308 -0.700705 
-4.967581 2.800217 0.245501 
-1.616684 5.550309 -0.485881 
-5.698242 4.083496 0.577582 
2.570628 0.086895 -4.201801 
4.178891 -2.449040 -0.574914 
0.295669 -4.628216 -0.515518 
0.295669 -4.628216 -0.515518 
3.891156 -2.319173 -0.463579 
-0.641605 -5.307155 -0.114087 
4.515053 -1.592393 -0.198753 
5.015948 -0.722079 -0.103038 
5.924765 1.041025 -0.122661 
-0.395582 -1.905045 -0.533110 
5.740953 1.547785 0.008076 
4.317370 1.005726 0.353329 
4.236025 1.492975 0.379358 
4.086439 2.007215 0.337255 
4.086439 2.007215 0.337255 
2.216943 0.885353 0.628764 
-2.655122 -0.763483 -0.116950 
-3.479190 -0.964854 -0.179988 
-2.438907 -0.346693 -0.058235 
-3.003496 0.024256 -0.091031 
-2.260924 0.951785 -0.084488 
-4.949349 1.550280 -0.333491 
-1.882041 -1.544194 5.430849 
-4.264539 2.812404 -0.054499 
5.020253 -0.726086 -0.116259 
-1.197836 -3.158536 -0.907061 
3.005218 -0.730103 0.066196 
4.324557 1.007703 0.345006 
-0.768594 -1.244042 -0.304574 
-2.647595 -0.753704 -0.113438 
4.749352 0.044934 0.114551 
3.288584 -0.393573 0.143227 
2.319865 0.491786 0.481354 
-2.221636 3.188889 -0.744247 
1.152063 -4.973021 -1.144034 
-1.098976 -1.847123 -0.420811 
2.824804 0.662565 0.534271 
5.382613 4.465707 0.022282 
-6.598393 0.598616 -5.101374 
1.101316 -0.925305 -0.455560 
1.101316 -0.925305 -0.455560 
4.191610 -1.344371 -0.288001 
5.692192 3.765978 0.164188 
5.692192 3.765978 0.164188 
-2.922742 6.203513 -0.082190 
-1.014207 0.019098 -0.293361 
