ply
format ascii 1.0
element vertex 346
property float x
property float y
property float z
end_header
-2.725893 -3.622404 -0.085172 
-1.733528 -4.806344 -0.941889 
6.741306 -2.440996 -0.475240 
5.684075 1.069510 -3.174781 
6.481539 -2.371389 -0.372144 
5.133773 -2.187143 0.060100 
0.577021 -3.916411 -1.103367 
-1.922477 -4.066322 -0.466841 
0.741746 -3.864449 -1.125435 
-1.315088 -4.791737 -1.034108 
4.252032 2.629232 1.472237 
0.487802 -3.792981 -1.024154 
-2.062930 -4.503889 -0.672657 
6.724240 -2.040045 -0.252223 
-1.873384 -4.621897 -0.781222 
7.474775 -0.121615 0.426787 
4.627431 -2.397114 -0.021127 
5.380586 -1.517022 0.425090 
-3.536694 4.286817 -0.203046 
-1.185575 -4.217476 -0.732397 
-5.444392 -3.683613 -1.295951 
-1.489831 -3.663558 -0.388760 
-2.725893 -3.622404 -0.085172 
-4.874969 0.372730 1.429788 
6.473470 -1.933412 -0.120184 
4.079390 -3.169305 -0.621397 
3.384241 -2.904557 -0.561733 
1.055126 -1.016031 8.696924 
2.984259 0.613942 -3.159466 
-5.568257 -3.085826 -0.954584 
-1.922477 -4.066322 -0.466841 
-3.117298 -3.728273 -0.062967 
-3.236291 -3.521292 0.044643 
-3.338406 -2.821081 0.364924 
-2.334383 5.509661 0.200750 
-4.209681 -3.276451 0.282118 
-3.903328 -2.426975 0.641615 
-2.081793 -3.836057 -0.314364 
-3.354636 -3.349860 0.175133 
5.149947 -1.107769 0.676696 
5.452251 -2.186723 -0.002544 
-0.910990 -0.004674 -1.689967 
0.716790 -3.286961 -0.873312 
0.672526 -0.546872 -0.324450 
3.150055 1.644392 1.027745 
-2.624218 -2.865077 0.212489 
-3.199719 -2.631491 0.436814 
-4.206934 -2.617960 0.559396 
-4.206934 -2.617960 0.559396 
-4.316467 -2.161941 0.743819 
-5.174244 -0.252335 1.137608 
-4.936597 0.062504 1.297070 
-4.936597 0.062504 1.297070 
-4.324535 0.728641 1.559238 
-4.058753 1.201817 1.671680 
-5.103457 0.747588 1.565139 
3.251456 3.374508 -7.206491 
6.775935 -2.229427 -0.360993 
6.775935 -2.229427 -0.360993 
-2.784181 4.986421 0.027057 
2.939521 1.947942 1.158334 
-2.150839 -4.286422 -0.533978 
-2.499870 6.393733 0.533698 
-0.449353 -3.004904 -0.508302 
-0.386005 -4.728823 -1.280657 
-4.247904 -2.938377 0.445466 
-4.172917 -2.771479 0.526589 
-6.347043 -1.351191 0.379927 
-4.682147 -0.035352 1.250241 
-5.902519 0.049126 1.265528 
-0.205310 -3.963012 -0.904369 
-0.524360 -4.005310 -0.818246 
-0.746090 -3.818621 -0.670283 
-5.206142 -0.448196 1.083382 
-4.722210 0.170246 1.344466 
-2.921334 1.515540 -10.714394 
4.360970 -3.351775 -0.740629 
7.211649 -0.512218 0.304004 
2.785961 -4.372460 -5.769116 
-0.796110 -3.377945 -0.615501 
-6.426991 -1.130417 0.527886 
-5.300024 -0.723066 0.917753 
1.225563 -3.453961 -1.111853 
0.400865 4.676672 -8.686581 
-0.301974 -3.612233 -0.734983 
0.008109 -3.491474 -0.784479 
-3.419341 4.574154 -0.101321 
-3.117298 -3.728273 -0.062967 
8.133184 3.461342 0.902285 
8.133184 3.461342 0.902285 
0.822763 -5.482978 1.696905 
5.489795 -1.108166 -0.966733 
1.900205 -3.355413 -1.646210 
1.901193 -3.354590 -1.646606 
7.290013 -1.013393 0.120184 
3.785586 1.552978 -3.412187 
3.016339 -2.594329 -0.467878 
0.152188 -3.878069 -0.962825 
6.773863 -0.094210 0.563888 
-6.119380 -1.516190 -6.074394 
7.479265 0.903954 0.671032 
-0.832621 -4.097013 -0.784127 
7.711198 3.212259 0.408538 
0.515452 -1.654003 -0.524699 
5.870830 0.985926 1.003582 
6.002712 1.134914 1.041449 
1.162147 -0.799303 -0.484339 
0.485843 -1.239103 -0.493153 
3.382137 0.149815 0.677090 
5.437382 1.338950 1.148895 
0.709542 -0.358857 -0.308106 
5.664977 1.828071 1.222242 
5.664977 1.828071 1.222242 
3.807800 0.722158 0.908432 
-2.170341 -3.255946 -0.052606 
4.257928 1.213951 1.094464 
-0.191761 -0.328464 -0.337302 
-2.804625 -3.264573 0.093636 
-0.139147 -0.028124 -0.256768 
-2.564326 -3.027216 0.131640 
5.048419 2.174681 1.340870 
3.967779 1.545558 1.147652 
3.866877 1.737710 1.190971 
-1.205264 -0.005770 -0.374606 
-1.205264 -0.005770 -0.374606 
0.391952 1.056951 0.033742 
3.620806 2.454412 1.400592 
3.288463 2.300702 1.318610 
3.785471 2.982622 1.536723 
3.886418 3.278966 1.594163 
3.946369 3.429906 1.611109 
3.946369 3.429906 1.611109 
2.384884 2.514659 1.284318 
2.253790 2.579942 1.272188 
2.354533 2.704236 1.345107 
3.445309 -2.195937 7.371436 
3.382559 -2.226018 7.436108 
2.425800 2.911213 1.453430 
-4.764554 -2.153594 0.679509 
0.241635 1.192252 -1.362362 
-4.318140 -1.412175 0.959913 
-2.861257 3.976980 -0.419600 
-2.250234 4.877387 -0.154347 
-3.002997 4.326178 -0.240861 
-3.427500 4.098558 -0.304391 
-2.203287 4.829446 1.589320 
-3.346393 4.772043 -0.018833 
-4.298312 1.161524 1.687096 
1.053609 -0.855773 8.821155 
-4.423923 1.374930 1.750455 
-1.322343 6.712425 0.521555 
-4.099903 5.064438 0.067330 
-5.708726 0.912578 1.591824 
-2.849548 5.828290 0.377320 
-6.006806 0.818544 1.532446 
-3.420858 4.701542 1.998439 
-5.605007 1.234653 1.692156 
-1.796057 6.829916 0.613032 
-2.769957 6.310020 0.505551 
-6.131446 1.237014 1.576276 
-4.634970 5.384984 0.066192 
-3.605330 5.920105 0.365852 
-2.798139 6.767936 0.636022 
-0.840465 -0.122995 -7.527231 
5.908744 0.134129 -2.426785 
0.904311 -2.278213 -5.359893 
-1.643203 1.287905 -4.651174 
3.238183 -2.828629 -0.532402 
7.327594 -0.299430 0.369677 
4.861599 -2.168340 0.097347 
5.536655 -1.711764 0.312308 
0.695166 -3.691209 -1.044821 
5.607409 -1.459683 0.446478 
-3.380908 -2.445269 -3.759363 
5.898035 -1.056588 0.618809 
7.637926 0.937937 0.658205 
2.104537 -2.437239 -0.744926 
3.223628 -1.328887 0.138728 
3.223628 -1.328887 0.138728 
0.324346 -2.555406 -0.582972 
0.386407 4.392684 -7.417143 
8.528404 2.757061 1.047574 
0.354090 -2.007453 -0.550976 
6.941671 1.720497 0.936874 
4.884461 -0.433870 1.060213 
7.743412 3.569064 0.595420 
0.938638 -0.933949 -0.485864 
5.870359 1.489143 1.137248 
3.510720 0.411132 0.779820 
0.415090 -0.564725 -0.343221 
2.651937 0.146790 0.536814 
2.651937 0.146790 0.536814 
0.165224 -0.445913 -0.300030 
2.395850 0.521491 0.609428 
-0.956179 -0.631580 -0.512153 
-1.165333 -0.673107 -0.557789 
-2.652697 -2.421066 -0.672550 
0.228248 0.149934 -0.207273 
3.212636 1.408724 0.929676 
-2.867346 -3.013262 0.211199 
3.150055 1.644392 1.027745 
-2.845863 -2.619495 0.360580 
-1.751455 -0.027305 -0.381816 
3.587868 2.184203 1.297106 
-4.849072 -3.512392 0.132592 
-3.268846 -2.454327 0.497303 
-4.589478 -2.560976 0.590028 
-4.768438 -2.148179 0.696514 
1.795266 -2.139064 6.362512 
-2.658213 4.509638 -0.200651 
-7.564426 -0.827209 0.411834 
-7.564426 -0.827209 0.411834 
-5.164920 0.044985 1.275570 
-3.536694 4.286817 -0.203046 
-4.265481 0.870076 1.589292 
-4.196024 5.151808 0.090472 
-3.784818 5.622421 0.266168 
-0.179860 -6.309149 -1.195455 
4.395619 -1.600131 -3.268354 
3.259685 3.368850 -7.232126 
0.741746 -3.864449 -1.125435 
3.833842 -2.278512 0.002248 
7.186333 0.035826 0.508181 
2.903301 -2.428566 -0.407073 
2.664490 -2.112357 -0.348232 
1.354014 -2.308639 -0.777339 
4.436768 -1.450753 0.464269 
0.950244 -2.267631 -0.665997 
8.603245 2.505000 0.960132 
1.173119 -1.017870 -0.523740 
3.219290 -0.089622 0.579350 
5.068306 1.825252 1.258292 
0.928071 0.353047 -0.161383 
-0.539781 -0.511745 -0.413965 
-1.327270 -0.579980 -0.537150 
-1.451722 -0.399729 -0.483662 
-1.648117 -0.396775 -0.528330 
-0.295267 0.743196 -0.142183 
-3.336686 -2.825387 0.353988 
-3.336686 -2.825387 0.353988 
2.483526 1.740216 1.033488 
4.378297 2.899992 1.510344 
-4.276100 -3.132036 0.352221 
-4.276100 -3.132036 0.352221 
-2.849631 1.099288 -0.275837 
-2.849631 1.099288 -0.275837 
-4.819881 -2.327725 0.612141 
-3.077297 1.053233 -0.338745 
-6.369154 -1.855064 -0.246185 
-2.227021 -2.900653 3.273722 
-3.251844 3.874614 -0.420490 
-2.006698 4.986137 -0.161763 
-3.194653 4.225817 -0.256792 
-6.748276 -0.700078 0.694887 
-1.705913 5.493448 0.080563 
-2.523115 5.046797 0.034817 
-3.810314 4.556070 -0.103305 
-2.133818 5.846731 0.300686 
-5.893779 0.461270 1.434621 
-4.621711 1.285176 1.731677 
-5.765881 0.813472 1.558712 
-3.139162 6.113213 0.456484 
-3.423974 6.025664 0.420338 
6.304498 -2.862641 -0.611954 
2.690049 -2.556436 -0.616269 
1.028160 -3.278873 -0.955680 
0.406786 4.557093 -8.062560 
7.066531 0.456157 0.655763 
0.391474 4.529272 -8.022972 
3.338392 -0.931788 0.301282 
-0.142636 0.804409 -5.638602 
1.180192 -1.016098 -0.533922 
-0.747135 -2.905661 -0.407495 
0.732660 -1.175639 -0.523433 
3.653315 0.194251 0.718370 
4.955021 1.498245 1.194081 
2.568897 0.387471 0.606855 
1.616016 4.144780 -5.136307 
-0.533725 -0.501723 -0.407487 
2.088791 1.393118 0.795549 
-3.338406 -2.821081 0.364924 
2.898883 2.939787 1.514017 
-4.447961 -1.979028 0.808048 
-2.918367 3.320031 -0.694654 
-5.154366 -0.913552 0.807632 
-5.154366 -0.913552 0.807632 
-3.033842 3.983543 -0.395253 
-2.589791 4.361211 -0.313058 
-4.540223 0.092120 1.286819 
-1.793391 5.244530 -0.050275 
-2.140474 5.154221 -0.069695 
-2.534236 5.053990 0.068656 
-2.610612 -0.746904 2.250347 
-7.892668 -0.204120 0.563780 
-5.923128 0.484122 1.438744 
-3.253432 5.310036 0.189756 
-2.216957 6.140165 0.382841 
-6.863160 0.423933 1.138371 
-4.406010 5.099476 0.048240 
3.972799 -2.465571 -0.127627 
0.694395 -2.178535 -0.649212 
-0.258853 -3.121074 -0.544708 
6.702997 1.061375 0.889844 
0.514963 -0.858103 -0.447417 
0.514963 -0.858103 -0.447417 
2.809412 -0.204855 0.454982 
-2.049115 -3.415348 -0.124388 
4.065044 1.835470 1.264190 
-3.629010 -2.848826 0.416978 
-6.126019 -2.750005 -0.790324 
-4.507667 -2.955226 0.421693 
2.994423 2.642012 1.410458 
-2.627188 4.772701 -0.083788 
-4.429963 1.034982 1.675276 
-5.461685 1.067797 1.643493 
-0.669406 0.887875 -4.249962 
3.982749 -2.463023 -0.141851 
2.668645 -1.622379 -0.127925 
4.827444 -0.950523 0.782525 
0.510455 -0.859785 -0.441915 
0.510455 -0.859785 -0.441915 
3.105963 0.303437 0.663091 
0.364401 0.480739 -0.218168 
-3.666835 -3.658800 0.055108 
2.755446 1.402965 0.917223 
2.399328 1.263533 0.859771 
-4.330525 -3.708803 0.075275 
-3.072749 -2.464859 0.447336 
-4.091584 -2.150039 0.726125 
-3.309446 4.115142 -0.308118 
-5.457832 0.397050 1.438500 
-3.121152 5.731653 0.306877 
8.062146 -1.033222 -0.318964 
2.358197 -3.046912 2.201883 
4.585664 -2.094342 0.125188 
4.585664 -2.094342 0.125188 
3.569299 1.337672 1.021108 
1.092859 4.785083 -4.757165 
-4.334661 -3.712574 0.076344 
3.921517 2.440511 1.390778 
3.921517 2.440511 1.390778 
3.921517 2.440511 1.390778 
2.737104 1.939197 1.131827 
2.885358 0.047892 -3.018237 
3.304434 1.941809 1.184449 
-3.827417 4.357673 -0.392663 
