ply
format ascii 1.0
element vertex 708
property float x
property float y
property float z
end_header
3.686894 -0.904634 0.000724 
-1.905255 -1.562535 -0.021292 
-4.629658 2.563038 0.148234 
-4.198205 2.417691 0.164750 
3.189176 3.037360 0.912976 
4.368294 0.603639 -0.183806 
-1.972153 0.439420 -0.253333 
-4.275719 2.913801 0.022879 
-3.807659 2.602506 0.078657 
4.408652 2.331212 -0.493669 
-1.310473 -2.191313 0.075532 
-1.310473 -2.191313 0.075532 
3.269888 4.666781 0.706562 
3.748179 0.272199 -0.051558 
-3.252414 2.263094 0.011277 
-0.212723 0.122780 -14.261688 
3.575141 5.412907 0.537841 
1.699299 0.855962 -6.566781 
-1.963467 0.679919 -0.312418 
-4.838705 2.653219 0.100703 
-1.745979 0.988189 -0.410503 
-2.985646 1.988781 0.026030 
-4.480202 2.031806 0.243116 
5.120917 5.750460 -0.908003 
4.617166 1.134001 -0.288320 
5.262875 4.685629 -0.740863 
-1.446643 -1.757867 0.078726 
-1.446643 -1.757867 0.078726 
4.336193 0.859773 -0.214785 
-4.986307 2.440469 0.135605 
3.099655 4.653807 0.707687 
-4.453787 1.779024 0.257308 
2.967749 3.151497 0.918917 
-4.629658 2.563038 0.148234 
-4.002877 2.638538 0.096343 
-1.972153 0.439420 -0.253333 
-3.871096 2.161127 0.189770 
-3.840648 1.936413 0.208449 
2.522154 4.251474 0.685599 
2.522154 4.251474 0.685599 
-2.716216 0.780913 0.078491 
3.431577 4.188635 0.813489 
-0.656826 -2.514933 -0.794529 
3.181592 3.932341 0.845079 
2.581814 3.549785 0.853982 
4.851971 5.347553 -0.777519 
4.201025 -0.036203 -0.172568 
3.269888 4.666781 0.706562 
-3.105534 2.599363 -0.159029 
3.622851 4.153435 0.816998 
2.318931 2.915418 0.889019 
5.120778 2.160209 -0.586274 
-4.553193 2.210336 0.202378 
-4.553193 2.210336 0.202378 
-1.556991 0.145375 -0.056810 
2.936764 4.982654 0.630497 
-4.349942 2.574634 0.160080 
-3.700199 1.947714 0.176345 
2.763116 4.169129 0.752543 
-3.608384 2.897625 -0.087253 
-6.553993 3.149735 -0.536057 
-5.888425 3.138913 -0.304683 
5.643561 4.584762 -0.850320 
4.934343 4.207645 -0.706496 
4.947625 4.043431 -0.692524 
5.520559 3.316474 -0.748294 
3.088402 5.884472 0.283030 
2.359697 4.379592 0.641894 
4.055504 1.359461 -0.286702 
3.656425 3.969019 0.837569 
1.267119 -3.296829 0.182657 
2.831646 -4.448845 -0.104703 
2.922150 3.325724 0.905400 
3.572551 0.474251 -0.082453 
1.942225 2.804741 0.857465 
2.826598 2.424397 0.943436 
2.853155 2.222208 0.934163 
2.262381 2.309620 0.921959 
2.446439 -0.786796 0.000563 
-3.607802 1.360663 0.246860 
-1.903976 -0.700935 -6.863566 
-1.680179 0.164751 -0.131592 
-2.142889 0.086702 -0.211929 
0.225788 0.717371 0.663055 
-1.574329 -0.228595 -0.022552 
-4.972323 1.545213 0.222830 
-4.972323 1.545213 0.222830 
-1.760370 -0.504872 -0.031902 
-1.760370 -0.504872 -0.031902 
-4.706446 1.309430 0.272202 
-4.706446 1.309430 0.272202 
-4.225156 1.120987 0.246008 
-3.949931 0.889534 0.295041 
3.111654 -2.649547 0.072000 
-5.786023 1.073416 0.039302 
-4.067505 0.840051 0.291917 
3.621511 -3.219923 -0.053295 
-3.006703 -0.240720 0.136133 
3.016752 -2.934100 0.082199 
3.409249 -3.403254 -0.048066 
2.423486 -2.604408 0.165986 
-3.185988 -0.610003 0.150778 
-3.122733 -0.655528 0.137053 
-3.122733 -0.655528 0.137053 
-0.128230 -1.773842 0.300957 
-5.115140 -0.200231 0.163374 
-1.009138 -2.046287 0.168776 
0.199450 -2.329997 0.297567 
1.213741 -3.066438 0.193508 
5.612185 3.507180 -0.769692 
-2.171586 -1.336849 -0.092964 
3.226035 5.335387 0.539683 
5.351614 1.900764 -0.573511 
5.243425 1.879408 -0.528081 
4.234372 1.054350 -0.228760 
3.601468 3.648728 0.863707 
3.465763 3.508257 0.850559 
4.031378 0.199419 -0.102488 
3.558027 0.093294 -0.028896 
-5.406979 3.615297 0.004459 
1.961759 1.773697 0.936850 
3.246599 -0.745592 0.062340 
-4.198205 2.417691 0.164750 
-6.498943 1.877620 -0.426596 
0.934362 1.454724 0.822043 
-3.043654 1.422769 0.149801 
3.218077 -1.456554 0.054115 
0.167731 0.983038 0.654867 
-2.046600 0.039479 -0.181566 
-0.474689 0.392470 0.449994 
-2.293119 -0.394230 -0.156734 
2.338159 -1.799122 0.148947 
2.755808 -2.016524 0.126052 
-3.124089 0.529365 0.177578 
2.757542 -2.211432 0.131614 
-5.919377 0.926440 -0.002580 
2.360541 -2.261528 0.173299 
-6.392489 0.528162 -0.237920 
-5.473820 0.839318 0.141150 
2.112303 -2.494308 0.209993 
3.588080 -3.839422 -0.105923 
-4.340460 0.396902 0.276781 
1.156027 -2.099718 0.233159 
-1.408836 -1.345540 0.102271 
-1.278872 -2.289575 -1.829083 
-4.266444 0.252600 0.273858 
0.908043 -2.142353 0.249311 
1.015735 -2.182263 0.246871 
-4.454891 0.250741 0.290056 
2.262859 -2.855503 0.173157 
0.542763 -2.061112 0.264086 
0.433513 -2.128414 0.250454 
0.847516 -2.378610 0.244337 
1.823401 -3.293016 0.165353 
-4.560910 -0.669499 0.209837 
-5.244433 -0.645314 0.129716 
-6.039630 0.944015 -0.045800 
2.801199 -6.109126 -0.537723 
5.146937 5.585155 -0.889856 
5.134969 3.002351 -0.629874 
3.825522 0.048056 -0.031570 
2.399544 4.179832 0.714332 
3.729879 3.551893 0.849829 
3.540924 0.639798 -0.106231 
-6.075253 3.871344 -0.364870 
1.553269 2.782023 0.740061 
2.659649 2.294269 0.947641 
2.017848 2.254758 0.928115 
1.991810 2.037978 0.925539 
3.111672 -0.881848 0.049695 
-4.548212 2.498958 0.160252 
-4.322088 2.402935 0.173003 
0.458478 1.544250 0.704309 
-0.443426 1.239438 0.413133 
2.403888 -0.944346 0.016574 
-2.716216 0.780913 0.078491 
-4.633696 1.595031 0.256061 
-2.169609 -0.401966 -0.154881 
0.128669 0.287081 0.657389 
-4.335224 0.922916 0.285668 
0.120664 -1.125617 0.308296 
-3.318699 0.073021 0.216452 
1.263818 -1.957611 0.222657 
-2.804043 -0.790346 0.009521 
3.495242 -3.614385 -0.027102 
3.195856 -3.373036 0.032590 
2.176715 -2.676848 0.187878 
-3.977284 0.178726 0.282235 
-3.977284 0.178726 0.282235 
0.120154 -1.605924 0.295378 
0.203954 -1.821375 0.289133 
2.241635 -3.117881 0.150005 
0.186061 -2.086075 0.287841 
-6.798954 -1.118434 -1.167442 
5.554532 3.758821 -0.785583 
5.335450 3.896379 -0.713847 
5.335450 3.896379 -0.713847 
5.231871 3.513873 -0.724748 
5.284434 3.197683 -0.686216 
-3.664629 0.295290 0.270357 
3.600521 5.209262 0.589639 
4.726521 1.626603 -0.380850 
4.726521 1.626603 -0.380850 
0.153386 -3.835155 0.052112 
3.307790 4.064665 0.831146 
-6.133168 4.496766 -0.408326 
3.775311 0.957027 -0.793114 
4.214115 -0.400174 -0.108322 
2.489667 2.411914 0.944068 
-1.830150 0.613470 -0.262737 
3.762023 -2.283151 -0.045744 
2.591601 -1.728991 0.117383 
-5.863956 1.336745 0.010880 
-3.988785 0.668170 0.290808 
-3.816331 0.384273 0.287133 
-1.469749 -1.089999 0.098232 
-3.448982 -0.234958 0.192125 
-0.077497 -1.517771 0.304664 
-0.077497 -1.517771 0.304664 
-5.655352 -0.197735 0.073175 
2.604833 -6.165933 -0.498204 
2.745938 -6.417216 -0.494262 
2.745938 -6.417216 -0.494262 
5.159024 4.173130 -0.694965 
-1.717935 -1.484737 0.025360 
3.651374 4.574132 0.752972 
-6.143879 3.040266 -0.302668 
1.911862 2.265790 0.904724 
3.803069 -1.591983 -0.019569 
3.803069 -1.591983 -0.019569 
-2.159038 0.329552 -0.118804 
-1.551369 -0.663104 0.031830 
-3.044147 0.129651 0.163911 
2.776578 -2.490556 0.153303 
2.564178 -2.718660 0.169104 
2.758953 -3.030065 0.115190 
-5.547653 -0.514492 0.069947 
5.493398 2.948523 -0.721152 
2.492615 4.468401 0.630637 
5.075941 1.104336 -0.393678 
4.367001 0.350206 -0.163806 
-6.200167 4.108400 -0.426329 
2.203182 1.659542 0.911466 
1.739142 1.724066 0.899339 
3.427467 -1.088648 0.103360 
1.836048 1.064490 0.835254 
-4.900767 2.260191 0.160685 
2.204345 -1.081517 0.094370 
3.246943 -1.690310 0.032832 
3.246943 -1.690310 0.032832 
1.941886 -1.304622 0.127782 
3.529579 -2.131059 0.016606 
0.416335 -2.419051 0.292789 
3.808183 0.566352 -0.111280 
3.410873 -0.535149 0.003400 
2.951286 -0.405628 0.024459 
2.460536 -1.127249 0.049269 
-2.946617 0.768888 0.162726 
2.112063 -1.757836 0.243847 
2.571924 -2.158600 0.147890 
3.365901 -3.013355 -0.040507 
-5.130953 0.321923 0.204423 
5.746579 3.392806 -0.768127 
2.783473 2.865202 0.920362 
-5.310830 2.112579 0.100646 
-5.348573 1.295281 0.123436 
-5.888425 3.138913 -0.304683 
5.163065 2.320786 -4.449464 
4.844085 3.997443 -0.691976 
4.781228 3.848779 -0.693274 
4.059810 4.301145 -0.585139 
3.741454 4.185517 0.798527 
3.739738 3.892718 0.832457 
3.739738 3.892718 0.832457 
3.767512 3.769566 0.834684 
2.359697 4.379592 0.641894 
4.759517 2.156099 -0.466520 
5.367504 1.322228 -0.590886 
5.454012 1.281560 -0.612466 
2.536645 -0.205543 -5.364571 
3.408648 3.306991 0.869177 
2.133010 -0.341681 -3.483764 
2.701300 3.455101 0.857016 
2.701300 3.455101 0.857016 
-1.456056 1.593920 -9.354254 
3.073462 2.139398 0.882951 
5.042097 0.180279 -0.418814 
5.042097 0.180279 -0.418814 
2.367419 -2.338013 -5.467451 
3.857351 0.153392 -0.055769 
2.828896 0.568655 -0.167401 
1.946706 1.639192 0.911443 
2.379048 1.350884 0.866259 
-2.757460 1.845413 -2.751624 
3.735904 -0.390216 -0.022886 
3.393286 -0.270020 0.014156 
1.291068 1.389063 0.861369 
-3.455218 1.513315 -6.546302 
3.827843 -0.683299 -0.027425 
1.058453 1.300272 0.844884 
-0.310521 1.418531 0.484144 
2.734117 -0.716659 0.028441 
2.446439 -0.786796 0.000563 
0.295534 0.818668 0.686082 
2.921431 -1.100527 0.077442 
-5.904453 3.598219 -0.250324 
-5.904453 3.598219 -0.250324 
3.360878 -1.503876 0.037800 
3.914244 -2.050673 -0.100173 
-3.285025 1.832549 0.128950 
-3.285025 1.832549 0.128950 
-0.039286 -0.088314 0.534557 
1.798790 -1.366960 0.156034 
-5.086504 2.340746 0.163339 
3.123100 -2.369436 0.072811 
-4.565227 2.035758 0.233152 
-0.012507 -0.487908 0.463687 
2.241974 -1.967479 0.170476 
2.344221 -2.126540 0.132718 
-3.916251 1.462778 0.265822 
-0.704654 -2.219986 -0.824395 
3.111654 -2.649547 0.072000 
3.628380 -3.044217 -0.052263 
-0.921171 -0.392318 0.219550 
3.058553 -2.781063 0.072864 
0.107038 -1.043628 0.326323 
-0.969003 -0.591832 0.196325 
0.674836 -1.679815 0.258763 
0.512875 -1.698066 0.282659 
-2.513977 -0.290241 -0.037075 
-2.513977 -0.290241 -0.037075 
1.570066 -2.473376 0.211521 
2.825137 -3.432814 0.063648 
1.734451 -2.788682 0.207911 
2.724337 -3.582942 0.078517 
-0.984774 -1.424845 0.215118 
2.206090 -3.295513 0.162587 
-4.849433 0.727479 0.240065 
-0.403313 -1.768259 0.288744 
-0.652594 -1.655200 0.248998 
-5.786023 1.073416 0.039302 
3.286927 -4.183234 -0.147852 
-4.964835 0.709948 0.238414 
-0.247738 -1.966975 0.270938 
-0.247738 -1.966975 0.270938 
-3.108157 -0.509821 0.136359 
-3.343253 -0.479687 0.175725 
-1.619996 -1.634552 0.015390 
-5.850486 0.762566 0.027357 
-5.650706 0.584395 0.068590 
-6.157920 0.752358 -0.097126 
-0.948783 -2.169705 0.179612 
1.316086 -3.462391 0.170750 
-3.709579 -0.650445 0.210367 
-2.559301 -1.656307 -0.199851 
-2.559301 -1.656307 -0.199851 
-2.486730 -1.743963 -0.192673 
-2.486730 -1.743963 -0.192673 
-2.388902 -1.781783 -0.168711 
-5.927928 0.241909 -0.001910 
-5.787998 0.159212 0.039525 
-5.787998 0.159212 0.039525 
-4.308199 -0.085890 -1.436628 
-2.799436 -1.769500 -0.179254 
-3.852088 -0.993978 0.200692 
-0.207806 -3.165741 0.157243 
-2.122388 -2.353321 -0.179185 
0.178256 -3.551012 0.137428 
-6.336837 -0.100725 -0.177091 
-5.083175 -0.724322 0.143544 
-4.987269 -0.810413 0.175134 
-1.620709 -2.932172 -0.137435 
-5.403408 -0.706993 0.079854 
0.845938 -4.347653 -0.006120 
0.845938 -4.347653 -0.006120 
0.074044 -4.131352 -0.017718 
-5.287765 -1.038010 0.088061 
2.785401 -6.357274 -0.535247 
-5.088048 -1.880723 -0.010138 
-5.404514 -1.898744 -0.103992 
2.922045 -5.207304 3.628233 
5.899145 3.671904 -0.900179 
5.592822 3.670880 -0.789056 
2.338834 4.512601 0.586354 
4.571208 2.384548 -0.495728 
4.892002 1.945580 -0.439733 
3.523580 2.837470 0.849881 
3.937136 1.264595 -0.248327 
4.234372 1.054350 -0.228760 
4.336193 0.859773 -0.214785 
3.733371 1.076976 -0.182509 
3.655904 0.960998 -0.201676 
3.655904 0.960998 -0.201676 
3.493562 0.816410 -0.147513 
2.146071 2.176963 0.927036 
2.936684 0.583920 -0.168001 
1.807268 1.279530 0.896114 
1.430306 1.155412 0.864566 
2.107070 -0.084263 -0.175782 
1.428777 0.919500 0.843665 
-5.626044 4.140117 -0.177941 
2.771729 -0.568181 0.019207 
2.844419 -0.996809 0.062688 
-5.591809 3.646193 -0.076957 
-5.234609 3.186779 0.068602 
0.588510 0.294996 0.682002 
3.099873 -1.559735 0.067964 
3.994651 -2.179873 -0.136679 
-1.682550 0.774913 -0.347207 
3.617297 -2.046762 -0.045705 
2.839656 -1.709493 0.086099 
2.839656 -1.709493 0.086099 
-0.394539 0.217652 0.473619 
0.890980 -1.096294 0.216193 
-0.094117 -0.630609 0.406010 
-1.105073 -0.359786 0.084537 
-1.105073 -0.359786 0.084537 
0.774764 -1.399438 0.248996 
0.774764 -1.399438 0.248996 
-0.470785 -0.898185 0.284670 
1.968853 -2.369492 0.201919 
2.425779 -2.928920 0.152603 
-3.803301 0.624940 0.275380 
1.015735 -2.182263 0.246871 
0.336845 -1.901990 0.273429 
3.628766 -4.028344 -0.148593 
3.447968 -4.003926 -0.105021 
-4.755200 0.802611 0.231931 
-1.733306 -1.034335 0.042693 
3.066007 -3.853337 0.016821 
-0.860027 -1.498035 0.266137 
-2.406941 -0.878674 -0.132672 
-0.764473 -1.606987 0.237236 
2.766456 0.971816 9.594326 
-1.054189 -1.539774 0.184868 
-1.054189 -1.539774 0.184868 
-6.107483 1.086998 -0.091981 
-2.657395 -0.829649 -0.037444 
-2.657395 -0.829649 -0.037444 
2.661021 -3.873726 0.057273 
-4.028244 -0.149037 0.259737 
2.346650 -3.880334 0.083386 
-1.009138 -2.046287 0.168776 
1.148685 -3.256980 0.206039 
0.629023 -2.954785 0.253063 
1.016760 -3.224303 0.185725 
2.931028 -4.541419 -0.114409 
-6.196156 0.472584 -0.118651 
-0.271557 -2.684942 0.207622 
1.902594 -4.058687 0.062170 
-0.163575 -2.850675 0.203014 
-0.163575 -2.850675 0.203014 
-3.783633 -0.820619 0.194326 
1.460643 -3.849440 0.090286 
1.669512 -4.232047 0.044585 
-6.238675 -0.156171 -0.125090 
-6.172234 -0.349657 -0.116772 
0.334541 -3.918953 0.072160 
0.682902 -4.211183 0.027439 
-1.800412 -4.013105 0.968276 
0.181192 -4.216837 -0.056417 
0.181192 -4.216837 -0.056417 
-4.652670 -1.542388 0.100168 
-4.854995 -1.482658 0.082476 
-5.822259 -1.065861 -0.020914 
-6.285495 -0.938440 -0.242134 
-6.252364 -1.167538 -0.240133 
-4.400037 -2.155223 -0.069375 
3.850913 1.415126 -7.882998 
5.617199 3.196456 -0.757011 
4.130018 3.817257 0.748735 
3.431577 4.188635 0.813489 
2.477952 3.867744 0.789301 
5.082979 1.425085 -0.404425 
3.855601 1.572378 -0.306117 
5.237281 0.611339 -0.556601 
-3.548222 3.982313 -2.724609 
2.969249 2.189501 0.937814 
4.051303 0.776301 -0.155928 
3.208205 0.764392 -0.159055 
3.292127 0.616950 -0.113952 
4.046956 -0.265007 -0.081265 
1.484451 1.441374 0.897208 
3.278806 -0.403874 0.023978 
4.695999 -1.593883 -0.347458 
1.013729 1.161189 0.825686 
1.688654 0.784588 0.812302 
-2.845341 2.590384 -0.258862 
0.854940 1.104733 0.790162 
1.604709 0.574632 0.790656 
-0.149578 0.875756 0.559653 
-0.149578 0.875756 0.559653 
0.579671 0.297567 0.697143 
-4.098969 2.512716 0.127683 
1.793901 -1.182086 0.119286 
1.793901 -1.182086 0.119286 
-6.878794 3.079270 -0.663913 
-0.482830 0.043274 0.429191 
-0.482830 0.043274 0.429191 
0.262888 -0.346184 0.551495 
-0.054187 -0.293876 0.471325 
-0.415519 -0.221037 0.424824 
0.987784 -1.260178 0.257913 
0.777570 -1.402931 0.248179 
0.777570 -1.402931 0.248179 
-5.568061 1.841564 0.102522 
-2.978783 0.402628 0.171351 
-0.805952 -0.772951 0.232631 
-0.319985 -0.988810 0.296323 
3.404560 -3.403140 -0.038172 
3.516858 -3.600709 -0.093887 
3.516858 -3.600709 -0.093887 
-5.707033 1.683437 0.073604 
-3.599130 0.500402 0.253674 
-3.318699 0.073021 0.216452 
-4.134759 0.553497 0.291163 
-0.128230 -1.773842 0.300957 
1.906358 -3.121305 0.177670 
2.383675 -3.444167 0.118456 
-0.084127 -1.957221 0.291194 
-1.408836 -1.345540 0.102271 
-5.628627 0.916730 0.104386 
1.823401 -3.293016 0.165353 
2.386934 -3.668439 0.120493 
-0.261206 -2.144473 0.268177 
-0.945679 -1.837284 0.200268 
-5.441948 0.606602 0.155657 
2.235599 -3.820854 0.069714 
-2.280872 -1.568661 -0.127880 
1.144986 -3.261548 0.220787 
-2.481693 -1.574902 -0.215668 
-4.077636 -0.369510 0.262766 
-4.077636 -0.369510 0.262766 
-2.251219 -1.802564 -0.173707 
-0.710243 -2.538140 0.150936 
1.883231 -4.267613 0.009809 
-5.447537 -0.166877 0.111109 
-4.560910 -0.669499 0.209837 
-0.378913 -3.082334 0.133613 
-0.139006 -3.313039 0.154778 
0.760517 -3.976261 0.074234 
-0.689146 -0.026313 8.257994 
-4.814640 -1.703037 0.019565 
-4.793848 -1.639351 0.143565 
-5.799174 -1.296593 -0.049494 
-0.353845 -5.022349 -0.632390 
3.849211 1.415966 -7.880596 
5.619297 3.194050 -0.757929 
2.895953 4.593979 0.669633 
5.488277 1.724471 -0.617851 
3.871947 3.364423 0.770196 
5.153996 1.676701 -0.507255 
4.311834 2.030689 -0.388389 
4.123324 1.557197 -0.316571 
4.123324 1.557197 -0.316571 
3.608947 1.401206 -0.291250 
2.094263 2.728554 0.901104 
-5.634441 4.396871 -0.213502 
1.445284 0.796911 0.823225 
2.431234 -0.575625 -0.042653 
2.083279 -0.626413 -0.075386 
2.083279 -0.626413 -0.075386 
-1.868273 1.224076 -0.563257 
1.695394 -0.589410 0.018701 
1.695394 -0.589410 0.018701 
-4.074153 2.234019 0.197073 
-5.878499 2.809231 -0.174546 
-0.625915 -0.123798 0.369555 
-0.625915 -0.123798 0.369555 
0.565661 -1.020998 0.256517 
-1.900465 -0.033847 -0.147369 
-3.835646 1.291534 0.282062 
-1.096837 -0.586602 0.165053 
3.998599 1.820028 6.628665 
-1.282923 -0.742855 0.126927 
3.588080 -3.839422 -0.105923 
-2.513485 -0.543905 -0.037034 
-1.405923 -1.347309 0.098655 
-1.405923 -1.347309 0.098655 
2.605224 -3.706945 0.079249 
1.361951 -3.059763 0.205088 
-1.717935 -1.484737 0.025360 
-1.524572 -1.557307 0.085098 
-5.442999 0.603942 0.161879 
-2.760013 -1.024564 -0.011465 
-2.760013 -1.024564 -0.011465 
0.339803 -2.655416 0.236586 
-4.077151 -0.361264 0.249432 
-4.077151 -0.361264 0.249432 
2.101199 -4.014303 0.049851 
-3.216392 -1.100972 0.092248 
-2.055146 -1.900449 -0.084748 
1.216913 -3.571513 0.149649 
-1.498952 -2.589968 -0.003968 
-3.954879 -1.121995 0.179930 
-3.954879 -1.121995 0.179930 
0.761622 -3.972951 0.066928 
-5.414579 -0.816601 0.077660 
-2.363500 -0.381071 -2.884040 
2.745938 -6.417216 -0.494262 
6.120084 3.867347 -0.877797 
3.447442 4.776288 0.728057 
3.447442 4.776288 0.728057 
4.838187 2.279348 -0.484983 
5.180613 2.084371 -0.543582 
4.626953 1.950342 -0.425423 
4.450147 1.252085 -0.314038 
4.473179 -0.487800 -0.137378 
3.453462 -1.060398 0.005448 
-1.870797 1.240522 -0.582354 
2.300239 -0.774787 -0.006559 
3.526818 -1.535011 0.008179 
-3.252414 2.263094 0.011277 
-6.682895 3.669986 -0.561448 
-0.260165 0.595389 0.523226 
-3.483998 2.114494 0.122286 
-6.143879 3.040266 -0.302668 
1.143534 -1.496687 0.205748 
-0.496458 -0.529212 0.321999 
0.791244 -1.569230 0.213313 
-6.599909 2.070989 -0.490077 
0.051408 -1.834118 0.313029 
3.014342 -4.309566 -0.102348 
-2.413238 -1.335515 -0.132473 
-2.649418 -1.362969 -0.160534 
-6.544173 0.530379 -0.295269 
1.036868 -3.451796 0.166978 
-1.007426 -2.408384 0.115594 
-0.040454 -3.038320 0.184957 
1.550889 -4.059298 0.056045 
-5.246301 -0.280110 0.159496 
0.343037 -3.607514 0.137225 
-0.211745 -3.349539 0.140225 
1.071477 -4.172527 0.005785 
-6.012800 -0.265120 -0.066667 
-5.547653 -0.514492 0.069947 
-4.050124 -1.498512 0.120793 
-5.976350 -0.733783 -0.035648 
-4.584968 -1.649640 0.086608 
3.430367 5.288589 0.573976 
2.451956 3.442588 0.841873 
5.164068 0.382837 -0.434101 
4.164181 0.761944 -0.150776 
2.633666 0.036330 -0.149362 
0.451043 0.662601 0.683393 
1.873633 -0.871894 0.042599 
1.873633 -0.871894 0.042599 
-6.819668 3.290193 -0.619237 
-1.963467 0.679919 -0.312418 
2.267661 -1.527439 0.105663 
1.290155 -1.193573 0.177179 
-1.278590 -0.123169 0.088109 
1.152065 -1.505513 0.200593 
-0.228885 -0.727821 0.287447 
-6.159826 2.131576 -0.292324 
1.510894 -1.982619 0.187050 
0.787846 -1.583913 0.242494 
-2.550007 0.091120 -0.009632 
2.904844 -3.233809 0.106596 
-2.173532 -0.604483 -0.157618 
-3.403592 0.210212 0.197389 
-0.689300 -1.805413 0.248049 
-1.296115 -1.786649 0.100899 
1.447877 -3.658683 0.093968 
-5.805402 0.297609 -0.006972 
-5.805402 0.297609 -0.006972 
-3.533141 -0.919528 0.178897 
1.209278 -3.821823 0.093870 
-4.047396 -1.499096 0.115809 
-4.704979 -1.305254 0.113610 
-5.623249 -0.911289 0.029331 
-5.623249 -0.911289 0.029331 
2.936764 4.982654 0.630497 
4.978505 2.683266 -0.525130 
2.216160 4.675375 0.557928 
4.563567 2.605077 -0.544538 
0.605259 1.180501 0.707648 
-3.449882 1.732289 0.157279 
3.086026 -2.667440 0.067679 
3.086026 -2.667440 0.067679 
-4.096829 1.367425 0.265745 
-2.169249 -0.607759 -0.161930 
2.554817 -3.238720 0.128851 
-3.773299 -0.055243 0.284468 
-6.307963 1.030209 -0.153884 
-6.307963 1.030209 -0.153884 
0.401792 -3.047234 0.178579 
-3.533140 -0.926163 0.188787 
5.737419 2.482047 -0.785908 
5.737419 2.482047 -0.785908 
-4.522458 3.596933 -0.715274 
0.815021 0.658157 0.760261 
-5.954070 3.613804 -0.319801 
-2.363226 -0.077757 -0.043185 
-0.414042 -1.268705 0.251466 
2.182874 -3.581365 0.045153 
-0.527745 -2.315047 0.192936 
4.533327 1.032523 -0.215928 
3.051825 0.238817 -0.168296 
1.524447 -1.674212 0.212648 
-1.078381 -0.334937 0.186315 
1.003852 -2.845761 0.181829 
-0.214387 -2.864703 0.146915 
-6.618802 -0.475749 -0.601642 
1.620265 -1.247587 0.260527 
1.852107 -3.038337 0.075221 
-4.210148 0.496384 -1.125334 
-4.210148 0.496384 -1.125334 
