ply
format ascii 1.0
element vertex 522
property float x
property float y
property float z
end_header
0.475481 3.659842 -0.564091 
2.273649 5.736632 0.245827 
1.313366 3.905938 -0.607426 
0.884386 -1.260038 7.494497 
5.461174 3.762546 0.066873 
4.300568 2.498124 -0.099554 
0.090061 0.211437 5.250699 
-4.564232 2.129259 0.280068 
-5.173811 1.797368 0.221060 
-5.240309 1.688777 0.212197 
-5.240491 1.135767 0.170712 
-6.482377 0.913640 0.012031 
0.944889 -0.113993 -0.109409 
0.944889 -0.113993 -0.109409 
1.714457 -0.263432 -0.128751 
-6.629664 0.433850 -0.024293 
-3.660430 0.510194 0.264400 
-2.960408 0.047599 0.144173 
-5.316802 0.058898 0.079131 
-3.967116 -0.051454 0.140192 
1.874278 -1.035472 -0.159606 
-4.599378 -0.847389 -0.037477 
-4.780596 -1.170200 -0.126170 
0.866075 -1.842735 -0.247573 
0.090415 -1.918916 -0.259314 
0.813735 -1.965811 -0.259198 
-4.652111 -1.480636 -0.190995 
0.397229 -2.259366 -0.311575 
-1.425543 -3.249168 -0.458684 
-1.425351 -5.109179 -0.565785 
-0.582065 -5.191523 -0.434854 
5.066798 -3.822796 0.618939 
2.911834 -4.445043 0.694937 
4.100678 -4.935876 0.622596 
1.464296 5.705307 -0.309243 
0.761784 5.164647 -0.479008 
1.222901 4.587895 -0.473725 
0.639858 4.079320 -0.560493 
3.638411 5.477663 0.328350 
0.596915 3.833442 -0.592623 
4.224691 5.356013 0.293806 
-0.120024 3.506136 -0.611507 
0.184688 3.462497 -0.594189 
4.492284 4.991305 0.278385 
0.126086 3.348627 -0.611619 
-0.230280 3.330730 -0.604618 
-0.027928 3.112121 -0.627240 
5.349587 4.176461 0.159970 
5.243745 4.149870 0.177100 
-0.031950 2.541649 -0.631092 
4.856102 3.725909 0.150516 
2.701704 2.185973 -0.530598 
3.927246 3.189404 0.036826 
-0.460500 2.230904 -0.551567 
2.686004 1.802915 -0.535805 
2.837729 1.809247 -0.513788 
1.236609 -1.537216 -2.036213 
-5.764783 2.248965 0.107903 
-3.814369 2.472999 0.418519 
-4.730019 1.695107 0.194010 
-6.466368 1.379045 0.052127 
-4.301234 1.630611 0.284293 
-6.689096 1.086268 -0.035194 
1.424575 0.314707 -0.126497 
1.424575 0.314707 -0.126497 
-5.105933 1.153406 0.180789 
-5.844555 1.055525 0.112488 
1.788715 -0.018881 -0.134755 
2.119574 -0.206051 -0.121924 
1.851371 -0.188963 -0.112657 
-2.352364 0.632729 0.188335 
-5.028906 0.518219 0.135893 
-5.028906 0.518219 0.135893 
-4.918337 0.453203 0.134353 
-3.501621 0.513776 0.258103 
-3.830239 0.456603 0.225509 
-5.175747 0.270863 0.107470 
-4.042246 0.337403 0.197181 
-5.875628 0.125007 0.044793 
0.860571 -0.782568 -0.142987 
-0.122975 -0.802028 -0.160958 
1.933457 -0.904495 -0.144240 
1.933457 -0.904495 -0.144240 
-6.060161 -0.317746 -0.027870 
1.862808 -1.297569 -0.188530 
1.757525 -1.663564 -0.222807 
1.696873 -1.823913 -0.239632 
1.696873 -1.823913 -0.239632 
1.021509 -2.057200 -0.289903 
1.498637 -2.917111 -0.401063 
-1.371245 -3.075619 -0.458188 
-1.011612 -4.207050 -0.458355 
-1.540579 -5.065807 -0.567661 
-1.184749 -5.378095 -0.528934 
5.389021 -3.966530 0.576349 
3.307653 -3.649563 0.787256 
3.459505 -3.647398 0.777212 
3.459505 -3.647398 0.777212 
3.969955 -4.354016 0.714672 
4.198518 -4.743934 0.644024 
3.667004 -4.723440 0.679954 
3.463738 -4.883261 0.646868 
2.964678 -4.986115 0.622959 
1.457005 -6.678626 0.240852 
1.023137 4.042805 -0.530027 
4.324199 5.243502 0.293819 
4.678457 5.039254 0.199382 
-0.231135 3.149992 -0.617169 
-0.400021 3.063196 -0.625746 
3.604549 4.391938 0.232897 
-0.631817 2.779833 -0.624212 
4.997653 3.771496 0.153182 
4.453080 3.403124 0.095655 
4.989399 2.712490 -0.079977 
-4.773320 2.574970 0.253460 
-0.534524 -1.910572 -0.429506 
-3.685754 2.092347 0.427003 
-3.685754 2.092347 0.427003 
-6.227870 1.492731 0.064583 
-5.042934 -0.053911 0.062505 
-5.135373 1.566057 0.201126 
-4.948494 1.534598 0.223475 
-2.570348 1.446051 0.340403 
-5.583502 1.286544 0.143972 
-5.600764 1.120614 0.138083 
-5.600764 1.120614 0.138083 
-5.913567 0.900599 0.096363 
-1.441954 2.314949 10.180765 
-5.391515 0.917573 0.148327 
-5.391515 0.917573 0.148327 
2.134391 -0.068279 -0.084110 
0.603381 -0.172769 -0.117451 
0.855371 -0.235440 -0.121119 
1.589697 -0.372366 -0.123805 
-4.842739 0.269497 0.133521 
-4.842739 0.269497 0.133521 
1.631762 -1.031112 -0.154985 
-4.565477 -0.173644 0.089464 
-4.195534 -0.200963 0.109100 
0.025526 -1.097896 -0.176054 
-0.341683 -1.212227 -0.203767 
-6.040364 -0.619410 -0.086039 
-0.255735 -1.440525 -0.214555 
1.104633 -1.603764 -0.207285 
0.503653 -2.026354 -0.271786 
-0.553624 -4.318432 -0.440470 
0.771280 -4.142282 0.935947 
-4.829634 4.932135 -0.174422 
3.926523 5.485072 0.292164 
3.926523 5.485072 0.292164 
4.767872 5.300383 0.239665 
3.295223 5.020735 0.299090 
4.709901 4.709800 0.240588 
1.928778 2.179537 0.591339 
5.064496 4.363736 0.195062 
-0.768788 2.920325 -0.652355 
3.589777 3.913089 0.145003 
4.791909 3.422022 0.100836 
4.262717 2.802112 -0.008939 
4.453396 1.606642 -0.299686 
-4.575526 1.984183 0.280050 
-5.611901 1.850681 0.154317 
-3.956701 2.162281 0.410937 
-5.505805 1.656655 0.184416 
1.254823 0.635390 -0.121085 
-3.449157 1.946304 0.454091 
-6.291812 1.072045 0.049712 
2.481651 -0.039194 -0.154818 
-3.665013 1.340940 0.374277 
-3.665013 1.340940 0.374277 
-2.744076 1.078601 0.304237 
-5.547804 0.953805 0.140714 
2.536868 -0.228329 -0.150476 
-3.051259 0.683906 0.261876 
-4.037444 0.464378 0.186299 
-4.645614 0.274360 0.144183 
0.709681 -0.743633 -0.123229 
0.603832 -0.984520 -0.153225 
-5.315212 -0.450925 -0.017469 
0.953274 -1.257768 -0.167713 
-0.251674 -1.768607 -0.190350 
1.303061 -2.846728 -0.411620 
3.528617 -3.201699 0.766316 
5.183644 -4.088287 0.590140 
2.888830 -4.236329 0.717142 
3.799909 -4.296875 0.732028 
2.181475 2.390694 -5.052827 
2.182872 2.346337 -4.349425 
2.372348 5.238944 0.191626 
0.637783 3.455312 -0.635523 
-1.226917 -4.143862 -0.492458 
-0.487498 2.887324 -0.611638 
-0.205231 2.937213 -0.585276 
4.483045 4.324808 0.241804 
5.797661 3.661122 0.033307 
-2.524702 1.744891 0.336829 
1.219761 0.400953 -0.122181 
-6.114924 0.923443 0.088371 
-3.264002 1.229455 0.384478 
-2.980071 1.162496 0.356120 
-2.980071 1.162496 0.356120 
-3.816546 0.866036 0.267473 
-4.519124 0.476836 0.168135 
2.012841 -0.600809 -0.120605 
1.383014 -0.648362 -0.133985 
-4.230648 0.258710 0.170483 
-5.998450 -0.054700 0.016281 
0.663208 -1.889486 -0.251190 
1.404457 -1.882242 -0.252232 
1.595124 -2.122027 -0.279360 
-1.319898 -4.775404 -0.526725 
3.121165 -4.356890 0.716428 
1.229389 -6.370378 0.222736 
-0.088609 3.615787 -0.598384 
-0.294419 3.407486 -0.607518 
5.395214 4.016804 0.126624 
4.633552 3.995981 0.203558 
5.441636 3.017638 -0.035026 
-4.979379 2.456196 0.250689 
-1.803704 0.512034 4.545312 
0.638769 0.986706 5.269239 
-4.990507 0.782453 0.156023 
-4.248568 0.734208 0.191368 
-3.196954 0.086079 0.147509 
-5.525987 -0.267194 0.000139 
0.655226 -1.401175 -0.187649 
3.680066 -3.558653 0.775735 
4.928538 -4.655410 0.586788 
4.025589 1.669793 -0.299533 
-5.247845 1.612309 0.187955 
-2.746462 0.619394 0.224347 
1.734544 -0.543815 -0.125475 
1.011789 -0.801319 -0.144320 
3.105799 -1.059545 -0.226274 
2.396227 -1.310668 -0.200245 
0.302057 -1.214380 -0.173588 
0.302057 -1.214380 -0.173588 
1.362355 -1.471881 -0.203005 
1.959632 -1.519243 -0.213417 
1.959632 -1.519243 -0.213417 
0.296414 -1.901765 -0.246822 
-1.486002 -3.915036 -0.575418 
-0.919828 -4.491174 -0.470739 
4.353174 -3.715573 0.721029 
4.353174 -3.715573 0.721029 
-6.269904 1.613068 -2.568059 
1.079973 -0.315617 -0.142063 
1.179592 -2.415793 -0.305423 
2.270597 -0.639610 -0.203683 
-5.596877 -0.724649 -0.074830 
0.316085 -0.668590 -0.168615 
-6.859968 -0.279881 -0.287862 
0.096106 -0.545396 -0.488602 
0.096106 -0.545396 -0.488602 
-0.373303 4.401496 -12.322751 
-0.849562 4.887482 -3.554366 
1.982522 5.598289 0.128809 
2.301808 5.414885 0.191870 
1.104724 5.143711 -0.417927 
3.364933 5.200196 0.316779 
4.325235 4.353988 0.250932 
0.660311 4.395919 -0.533694 
1.261586 4.124842 -0.560487 
1.261586 4.124842 -0.560487 
1.637424 4.032017 -0.590702 
1.252594 3.800038 -0.631916 
5.027913 3.286309 0.061764 
5.027913 3.286309 0.061764 
5.095930 3.149291 0.029560 
5.173238 3.048660 -0.001925 
4.559291 3.089763 0.037376 
4.886343 3.021889 0.007990 
4.886343 3.021889 0.007990 
5.167217 2.740124 -0.076580 
3.979243 2.852963 -0.039565 
4.832127 2.609359 -0.074421 
4.778558 2.467423 -0.106609 
5.266052 2.291720 -0.192791 
-6.181142 4.353623 -0.152627 
4.554804 2.328958 -0.164238 
3.621416 2.415723 -0.203278 
4.557204 2.219446 -0.172464 
4.557204 2.219446 -0.172464 
4.018831 2.244111 -0.190645 
1.614493 2.767406 -2.298335 
4.131729 2.110376 -0.214812 
4.131729 2.110376 -0.214812 
4.129562 1.975694 -0.238038 
4.847264 1.649854 -0.341886 
3.988318 1.844533 -0.274438 
-0.504069 4.020459 5.258127 
4.325633 1.557184 -0.342015 
-0.240796 2.891932 8.344674 
0.756077 3.775675 6.744914 
0.771450 3.711732 6.745446 
-3.732167 2.327880 0.433924 
-3.798686 2.113524 0.433718 
-7.132432 2.222940 0.231852 
-4.103553 1.637105 0.345897 
2.358989 -0.190359 -0.129831 
-3.225099 1.160150 0.384148 
-3.611725 0.857506 0.315932 
-1.953513 -0.076083 -0.309852 
-3.660430 0.510194 0.264400 
1.351225 -1.938315 -5.949975 
-2.828300 0.099490 0.136970 
-5.129135 0.442072 0.132452 
1.276564 -1.058780 -0.161357 
-0.059087 -0.937201 -0.171593 
-3.770551 -0.273265 0.096007 
-6.016571 -0.173017 0.003137 
1.139434 -1.764998 -0.230389 
-4.535963 -0.487743 0.039009 
-4.702836 -0.566426 0.008685 
-4.509794 -0.637359 0.005606 
-4.053037 -0.777370 -0.016780 
1.154285 -3.011815 -6.788955 
1.154285 -3.011815 -6.788955 
-4.062251 -0.911766 -0.042562 
0.618900 -2.052764 -0.283716 
-5.237619 -0.763721 -0.061492 
-4.714649 -0.924232 -0.060422 
-1.642082 -1.769060 -0.487267 
-4.339375 -1.097886 -0.088742 
-7.256943 -0.794462 -0.440493 
-4.566899 -1.209824 -0.117775 
-0.877367 -0.411480 10.061678 
-4.113264 -1.567848 -0.233043 
0.421107 0.536019 9.373279 
-1.009876 -0.676942 10.659136 
-5.010362 -1.477992 -0.194782 
-5.177996 -1.502673 -0.212365 
-5.050067 -1.656931 -0.265087 
-4.648253 -1.790129 -0.307205 
-4.977866 -1.770004 -0.297840 
1.710890 -3.326388 -0.486612 
1.367307 -3.451526 -0.437886 
5.006930 -3.726364 0.656524 
6.102881 -4.113188 0.410545 
5.570779 -4.206391 0.546278 
-1.562190 -3.574421 -0.466550 
2.586859 -4.121650 0.723469 
5.199375 -4.818307 0.530418 
-2.295127 -4.290416 -0.681236 
3.732489 -4.517195 0.704844 
4.605273 -4.993524 0.564074 
4.209551 -4.902549 0.622820 
4.512262 -5.122933 0.551785 
5.012688 -5.354403 0.391809 
2.680061 -4.788510 0.590126 
-1.290868 -5.322598 -0.560469 
-1.484624 -3.788808 -4.047271 
0.334691 -6.902520 -0.080518 
1.434839 -7.089249 0.166411 
1.434839 -7.089249 0.166411 
0.641024 -7.518415 -0.137015 
-0.185438 2.970922 -9.994564 
3.516383 5.459011 0.335433 
4.327868 4.353273 0.246434 
3.625001 4.026292 0.180385 
0.442083 3.716123 -0.578146 
0.411826 1.291321 -10.506911 
4.178059 3.247646 0.061549 
-0.538795 3.390061 -0.608606 
4.690323 2.217931 -0.170336 
-0.932985 2.791670 -0.673664 
4.670279 1.817802 -0.310545 
0.229675 2.363562 -0.664669 
4.601840 1.466359 -0.372847 
-4.770982 2.719529 0.230463 
-4.868992 2.294295 0.266634 
-5.710701 2.015333 0.141349 
-3.679638 1.600712 0.422976 
1.788715 -0.018881 -0.134755 
1.090669 0.103746 -0.108453 
-5.277672 1.240184 0.166632 
-2.641502 0.447994 0.149108 
-3.501621 0.513776 0.258103 
1.124379 -0.679548 -0.119401 
-3.705257 0.379602 0.224081 
-0.956831 -1.551634 -1.899673 
-0.342194 -0.921766 -0.173524 
-3.830316 -0.056773 0.142530 
0.520582 -1.389285 -0.185723 
-3.852924 -0.388641 0.068667 
1.345860 -1.708763 -0.224601 
-3.972480 -0.656145 0.030268 
-4.813008 -0.592017 0.001026 
-5.932551 -0.441692 -0.031201 
-4.006487 -1.128249 -0.131845 
-1.608874 -0.786760 -8.410576 
1.409967 -2.519499 -0.337150 
-4.790431 -1.327052 -0.149691 
-5.657058 -1.208096 -0.166701 
-5.657058 -1.208096 -0.166701 
-5.357872 -1.316591 -0.185877 
-4.796502 -1.490923 -0.235504 
-2.678295 -2.337653 -0.764657 
-2.960038 -2.702417 -1.172400 
1.734461 -3.985934 -2.550234 
1.876303 -3.531523 -0.488149 
4.824387 -5.292247 -4.311988 
3.600091 -3.540191 0.766397 
5.571970 -4.202896 0.542533 
3.307653 -3.649563 0.787256 
5.443932 -4.286482 0.531487 
4.825758 -4.313846 0.626102 
3.180504 -4.477648 0.717407 
3.180504 -4.477648 0.717407 
5.142858 -5.097291 0.481749 
3.014936 -4.665261 0.670270 
1.038219 -6.712827 0.172596 
0.654608 -6.971334 0.006703 
1.454840 -7.253023 0.126549 
1.454840 -7.253023 0.126549 
2.408826 6.512947 0.720012 
5.075645 4.704900 0.204918 
1.647987 3.755310 -0.654919 
1.627086 3.209084 -0.817837 
4.580069 3.269251 0.083072 
-5.209745 4.894342 -0.091734 
4.856577 3.170458 0.039177 
4.976711 3.057793 0.013832 
4.413488 3.115805 0.036833 
-0.456809 2.520456 -0.601828 
4.899114 1.489673 -0.423026 
4.350914 0.720202 -0.547318 
-3.738819 1.200123 0.347367 
-3.947060 1.132279 0.316967 
3.416687 -0.637373 -0.217649 
-1.712104 2.272877 6.331689 
-5.134699 0.978219 0.157074 
-4.498347 -0.799765 2.556003 
-5.002964 0.206544 0.112704 
0.025526 -1.097896 -0.176054 
1.265191 -1.576862 -0.223636 
0.108121 -1.425593 -0.183361 
-5.994958 -0.843310 -0.103946 
-4.163397 -1.748239 -0.305671 
1.366562 -3.297747 -0.496684 
1.366562 -3.297747 -0.496684 
5.528023 -4.415862 0.509532 
3.398162 -3.883145 0.766999 
3.398162 -3.883145 0.766999 
5.538235 -5.138514 0.349925 
-1.110300 -1.125549 4.949711 
3.294618 -2.709651 -0.884147 
3.706044 -5.310181 0.553559 
3.402977 -5.299223 0.548754 
1.063644 -6.063335 0.194520 
1.063644 -6.063335 0.194520 
4.405421 4.928017 0.260204 
5.075102 4.707495 0.204749 
4.709901 4.709800 0.240588 
5.385884 4.363860 0.156086 
2.954990 4.805209 0.218258 
1.434774 4.147549 -0.552341 
0.048577 4.223579 -0.601064 
0.048577 4.223579 -0.601064 
0.801378 3.987840 -0.548610 
1.310362 3.527853 -0.656925 
5.551793 1.944204 -0.333076 
4.262294 2.278160 -0.152789 
4.046470 1.224313 -0.427102 
2.536868 -0.228329 -0.150476 
0.496392 0.179675 -0.133988 
-3.521149 1.126389 0.366599 
0.576698 0.004902 -0.108534 
0.388149 -0.100321 -0.140992 
-6.261452 0.866216 0.027367 
-3.507779 0.176354 0.196318 
-3.638964 -0.376674 0.089706 
-0.563225 -3.202907 -1.328406 
-3.733297 -0.970231 -0.076047 
-5.265449 -1.288514 -0.185832 
-6.929077 -0.053536 0.880155 
-5.651633 -1.473583 -3.036543 
-0.625287 -4.124671 -0.468807 
0.973102 -5.101146 2.779045 
3.104513 -5.077672 0.598721 
1.102451 -7.093577 0.108792 
1.102451 -7.093577 0.108792 
1.324230 -7.103161 0.141680 
0.910794 -7.159321 0.059806 
1.764170 -7.432579 0.070470 
0.365405 4.836514 -0.543475 
5.248202 3.691478 0.107213 
0.149013 0.452171 -4.036367 
5.641936 3.314045 0.013763 
4.286688 3.565161 0.129297 
5.257510 2.709355 -0.108503 
4.765221 1.473855 -0.389999 
2.617194 0.151095 -0.203200 
-5.391937 1.859238 0.197214 
1.383014 -0.648362 -0.133985 
-4.037444 0.464378 0.186299 
-6.420197 0.744980 0.007427 
-0.951846 -0.593639 -0.138622 
-0.706441 -0.709350 -0.181911 
-6.492459 0.462594 -0.012568 
-3.230382 -0.325439 0.090344 
3.158085 -2.906885 0.696756 
-5.012956 -1.237188 -0.138248 
-1.008502 -3.417090 -0.437101 
-1.059673 -4.789541 -0.479858 
-0.767700 -5.664414 -0.419392 
1.347678 -6.675316 0.224754 
2.671058 5.194188 0.276952 
0.635810 3.110111 -0.643571 
-2.807190 0.907546 0.319476 
-1.272251 -1.125894 -0.230977 
-2.144503 -1.458219 -0.479445 
-0.056735 -6.278739 -0.225635 
-3.065692 -5.552756 -5.361808 
4.273358 2.809499 -0.031722 
-3.775861 -0.580636 0.040968 
-2.754938 -0.009211 5.161932 
4.733358 -3.459529 0.703077 
3.880945 -4.817390 0.649752 
-6.310180 -0.369705 -0.058187 
3.961525 -3.279220 0.782082 
-0.389914 -1.138597 -0.131400 
