ply
format ascii 1.0
element vertex 801
property float x
property float y
property float z
end_header
3.279154 -4.460559 -4.427619 
0.012177 -5.824343 0.108332 
0.286639 -5.646002 0.013782 
-0.958717 -2.255411 -7.395732 
-1.429144 -1.575879 -6.683259 
-2.741057 -5.732988 0.619994 
-2.741057 -5.732988 0.619994 
0.830038 -4.396135 -0.198485 
-1.141567 -5.367239 0.617541 
-0.807365 -5.219762 0.563506 
1.418166 -1.925102 -7.701136 
-3.189524 -5.509938 0.605126 
-0.270496 -4.335602 -0.188293 
-0.270496 -4.335602 -0.188293 
-1.850120 -0.468930 -10.707475 
-1.850120 -0.468930 -10.707475 
0.648149 -3.622825 -0.214306 
-3.016086 -4.864495 0.626835 
-3.016086 -4.864495 0.626835 
-3.628785 -4.942088 0.575873 
1.906568 -2.793430 -0.399410 
-4.114256 -4.550289 0.515090 
-0.176402 -0.943514 -8.354072 
-3.506758 -4.316632 0.553258 
1.128653 -2.739519 -0.264040 
-4.021926 -4.276179 0.480725 
-4.021926 -4.276179 0.480725 
-3.587526 -3.957312 0.486456 
0.580108 -2.361595 -0.294299 
1.650784 -2.109473 -0.312060 
2.101606 -1.728749 -0.387913 
1.027371 -1.982360 -0.222615 
1.978287 -1.670930 -0.354980 
-2.300212 -2.804066 -0.032089 
-3.170775 -3.073666 0.257756 
-3.170775 -3.073666 0.257756 
1.767387 -1.508925 -0.313335 
0.793410 -1.394205 -0.113962 
5.509906 -0.482076 0.221492 
5.509906 -0.482076 0.221492 
0.397168 1.654853 4.154982 
5.160131 -0.566707 0.284743 
3.991339 -0.901007 0.411898 
5.258458 -0.476148 0.259802 
5.258458 -0.476148 0.259802 
0.374004 -3.614062 5.076616 
2.279213 -1.118140 0.265784 
2.751772 -0.987557 0.440083 
5.601519 -0.207568 0.207702 
4.989715 -0.402842 0.307255 
5.723876 -0.102605 0.198706 
5.045144 -0.323661 0.303375 
6.057874 0.230300 0.119663 
4.484843 0.041570 0.338170 
-3.582063 -0.309766 -1.553113 
3.881805 -0.138855 0.461942 
-0.794388 0.345964 -7.129393 
2.541768 -0.273033 0.416033 
-1.802060 -0.919458 0.039981 
-1.802060 -0.919458 0.039981 
4.945575 0.451530 0.267962 
5.234475 1.190190 -1.917364 
4.821782 0.465743 0.281454 
4.990572 0.555733 0.257076 
4.990572 0.555733 0.257076 
-3.247135 -1.000550 -0.039877 
-3.620507 -0.287982 -1.570446 
3.870632 0.403015 0.410577 
4.783574 0.886793 0.228433 
4.874238 1.049440 0.211919 
2.581450 0.438782 0.385164 
5.913280 1.401031 0.070199 
-0.527596 0.057758 0.073792 
-0.566400 0.173556 0.072880 
5.644312 1.562402 0.100055 
-2.490930 -0.167346 0.045886 
-2.490930 -0.167346 0.045886 
-0.722484 0.243489 0.064954 
-0.722484 0.243489 0.064954 
2.394038 0.776149 0.297359 
-2.202914 -0.062434 0.064729 
-1.419535 0.153452 0.053997 
1.512077 0.941037 -0.126314 
5.948174 1.843541 0.008955 
-0.499135 0.509078 0.050601 
-0.729680 0.510407 0.063725 
0.502949 0.153722 -2.464743 
3.377724 1.330681 0.267132 
-1.231313 0.550233 0.034902 
-2.680432 0.260178 0.021490 
6.144872 2.292316 -0.110390 
2.683245 1.457924 0.197241 
-1.294622 0.722442 0.021236 
4.724983 1.996073 0.101650 
5.852352 2.425569 -0.064699 
5.852352 2.425569 -0.064699 
3.535346 1.813383 0.166197 
3.535346 1.813383 0.166197 
-1.697623 0.806190 0.009566 
0.727398 1.525438 -0.094992 
1.968411 2.010166 -0.346683 
-3.365134 0.727881 -0.067708 
-1.424597 1.190576 -0.030209 
3.935019 2.515514 -0.014660 
-4.143028 0.949799 -0.245768 
-3.663655 1.082192 -0.162731 
0.159371 1.882338 -0.119453 
0.068105 1.882671 -0.117721 
4.024700 2.773941 -0.090477 
-0.969253 1.723801 -0.112307 
1.556434 2.387714 -0.142109 
-0.306295 1.988009 -0.133441 
-0.943953 1.830659 -0.133356 
-3.208669 1.392320 -0.150675 
3.864996 2.930405 -0.166659 
-0.633635 2.159037 -0.184061 
-2.671526 1.774481 -0.171917 
-0.581782 2.394013 -0.238526 
0.796346 3.273980 -0.519767 
-1.338514 -1.537616 7.034957 
-1.338514 -1.537616 7.034957 
-1.302662 2.021973 -3.197950 
-2.472242 2.620042 -0.302907 
0.758256 3.408455 -0.362991 
-4.005795 3.316951 0.624461 
0.378797 3.595472 -0.371200 
0.166338 3.937281 -0.390651 
-0.117077 3.873827 -0.391870 
-3.804966 2.540552 0.612780 
-3.804966 2.540552 0.612780 
1.627305 1.072250 -0.535278 
-4.238250 2.626134 0.617365 
-5.367896 2.559216 0.506452 
-5.292003 2.704314 0.509322 
-5.292003 2.704314 0.509322 
-0.251671 4.434415 -0.391628 
-0.081899 4.502002 -0.395437 
-5.224193 2.983605 0.537557 
-5.224193 2.983605 0.537557 
0.591381 4.906893 -0.529611 
0.414043 5.049296 -0.501667 
0.039866 4.949711 -0.449285 
0.526230 2.240467 3.749001 
-3.160773 3.752340 0.636114 
-0.327332 5.037171 -0.422404 
-3.685628 3.687521 0.643711 
-3.685628 3.687521 0.643711 
-5.003360 3.577745 0.539641 
-5.003360 3.577745 0.539641 
-3.683849 4.078816 0.614120 
-0.864751 5.836529 -0.327954 
-3.251932 4.816384 0.503566 
-4.441021 4.559146 0.507543 
-4.356548 4.856635 0.450460 
-0.847468 6.189220 -0.337943 
-1.941366 5.891541 0.072572 
-2.652796 6.396493 0.061984 
-2.435307 6.583924 0.053957 
-0.557326 -6.578450 0.213961 
-0.557326 -6.578450 0.213961 
-0.013904 -5.931529 0.138570 
0.465744 -5.496179 -0.048308 
-0.087046 -5.687126 0.119220 
0.469290 -5.262335 -0.067867 
0.219476 -5.168304 -0.021043 
0.822559 -4.849226 -0.154129 
-1.301144 -5.804736 0.606214 
-2.058058 -5.857421 0.639457 
-1.900083 -5.756614 0.647687 
-3.169743 -5.936791 0.536178 
-0.062199 -4.784586 -0.046996 
-0.703644 -5.256042 0.525764 
-0.195444 -4.629857 -0.099912 
-1.779951 -0.405218 -11.018823 
-1.800281 -0.451562 -11.177505 
0.354626 -4.267198 -0.151621 
1.162021 -3.958279 -0.234969 
-2.085823 -5.169866 0.664274 
0.351511 -4.051867 -0.166071 
0.351511 -4.051867 -0.166071 
0.247992 -4.073307 -0.174481 
-2.621385 -5.238962 0.657652 
-2.621385 -5.238962 0.657652 
-0.065111 -4.023035 -0.222606 
0.468866 -3.906876 -0.189980 
0.646631 -3.857955 -0.204572 
-4.117085 -5.232388 0.486357 
1.258428 -3.545644 -0.246489 
0.920887 -3.589655 -0.215842 
-1.473369 -4.639366 0.591522 
0.650780 -3.625976 -0.216063 
-2.924134 -4.984168 0.631267 
0.667597 -3.498576 -0.221981 
0.987043 -3.401555 -0.234873 
0.987043 -3.401555 -0.234873 
0.757297 -3.245777 -0.235996 
1.810072 -2.745937 -0.382078 
1.713659 -2.761189 -0.380731 
-3.828232 -4.561802 0.541835 
-3.734229 -4.496834 0.554379 
1.769801 -2.617346 -0.352000 
0.410978 -2.865153 -0.273036 
2.134591 -3.465503 3.022093 
1.155673 -2.614729 -0.283187 
0.656426 -2.715094 -0.268261 
-3.468562 -4.033332 0.508138 
0.636523 1.204410 0.905192 
1.740237 -2.151929 -0.317990 
0.390790 -2.344515 -0.335811 
-1.814368 -2.940769 -0.149399 
-2.738408 -3.450626 0.370714 
1.729306 -2.030613 -0.303481 
1.729306 -2.030613 -0.303481 
0.980401 -2.220880 -0.231136 
2.103994 -1.836260 -0.374061 
0.338106 -2.331442 1.717329 
0.338106 -2.331442 1.717329 
-2.153869 -2.933884 -0.054893 
1.664922 -1.930587 -0.283166 
-2.024145 -2.760463 -0.094696 
1.359183 -1.860388 -0.251581 
-1.869796 -2.584072 -0.170898 
1.794956 -1.188960 2.213586 
-2.010306 -2.581368 -0.135061 
1.878145 -1.560978 -0.339628 
1.397498 -1.725461 -0.227402 
5.294533 -1.120012 0.208565 
-1.961527 -2.431094 -0.170840 
5.651550 -0.941426 0.149797 
5.467493 -0.854916 0.198492 
4.918580 -0.935537 0.283741 
-2.107207 -2.077103 -0.149546 
-0.066830 -1.576749 -0.118891 
4.610399 -0.813005 0.337416 
0.632756 -1.373703 -0.120682 
0.632756 -1.373703 -0.120682 
4.808306 -0.695117 0.324892 
4.702862 -0.658027 0.341710 
-0.499036 -2.582221 -0.759976 
1.216285 0.338956 5.497073 
-2.996528 -1.889640 -0.131575 
4.886974 -0.437307 0.316284 
-3.178669 -1.846582 -0.126869 
4.308666 -0.452358 0.399128 
-3.200135 -1.728651 -0.115641 
4.477950 -0.332674 0.369717 
-2.430327 -1.560126 -0.044017 
5.550542 0.064245 0.226261 
-2.004785 -1.419404 -0.000098 
3.964303 -0.398028 0.449341 
3.723620 -0.460460 0.483081 
5.390950 0.112648 0.234906 
5.390950 0.112648 0.234906 
5.535286 0.188607 0.206867 
4.648802 -0.077333 0.333514 
3.897430 -0.314679 0.466110 
6.361342 0.529541 0.038688 
3.105074 -0.440602 0.553521 
5.475352 0.422393 0.213597 
6.443425 0.810712 0.000894 
6.443425 0.810712 0.000894 
-2.231583 -1.060149 0.030223 
6.352877 0.908162 0.025574 
4.617840 0.378732 0.305059 
-1.319613 -0.704624 0.077068 
4.530995 0.455146 0.313406 
4.235200 0.365825 0.357456 
6.003215 0.971787 0.100055 
4.975356 0.660533 0.236924 
-2.457336 -0.793768 0.037277 
-2.457336 -0.793768 0.037277 
4.153759 0.478309 0.345798 
-1.995328 -0.659249 0.061559 
6.333716 1.331366 -0.029735 
6.127669 1.235634 0.046768 
-1.064222 -0.308277 0.076212 
-1.064222 -0.308277 0.076212 
-1.972945 -0.454034 0.064829 
6.473474 1.521132 -0.114314 
4.758907 1.005231 0.216321 
5.385167 1.211944 0.152270 
-2.555233 -0.340672 0.062636 
-1.447948 -0.085178 0.073442 
-1.764708 0.012298 0.078191 
-1.526461 0.073449 0.077606 
-2.307399 -0.084471 0.060102 
2.104426 1.321931 0.325581 
2.272532 0.790841 0.270253 
-3.821494 -0.284136 -0.050013 
-1.029597 0.280530 0.057626 
6.935756 1.955867 0.166788 
-0.499198 0.507430 0.048096 
4.567129 1.551086 0.173288 
4.567129 1.551086 0.173288 
4.459330 1.578053 0.168433 
-3.846878 -0.048161 -0.054132 
3.237980 1.294149 0.282258 
3.510073 1.397146 0.248420 
4.642005 1.790475 0.131884 
3.674270 1.531113 0.218925 
5.229106 2.038803 0.075950 
-0.771763 0.866830 0.026003 
0.080920 1.109487 -0.020755 
-1.724618 0.682150 0.023428 
-1.724618 0.682150 0.023428 
-2.970861 0.505107 -0.039708 
-3.716005 0.406945 -0.085349 
-3.716005 0.406945 -0.085349 
5.293314 2.424483 -0.010076 
-3.494624 0.629810 -0.075076 
-1.738080 1.032731 -0.011342 
-1.705329 1.349571 -0.062173 
-0.001111 1.788871 -0.105478 
-0.637911 1.674864 -0.094374 
1.683572 0.445048 -1.911110 
0.252290 1.909265 -0.094201 
-1.682727 1.487888 -0.093797 
-1.682727 1.487888 -0.093797 
-1.139341 1.844469 -0.130183 
-3.115816 1.445357 -0.157675 
-2.572059 1.863329 -0.176704 
-1.696446 2.368281 -0.253848 
-2.535302 2.244614 -0.239696 
-2.116643 2.385585 -0.287973 
0.740804 3.234642 -0.356510 
-2.249155 2.713327 -0.356047 
-5.305192 2.335492 0.488594 
-4.137543 2.598261 0.619244 
0.228656 4.191160 -0.405868 
-3.629299 2.765830 0.615427 
-5.528851 2.477912 0.468914 
-5.641126 2.642427 0.469999 
-3.468380 3.191752 0.644997 
-3.235855 3.303942 0.626483 
0.520817 5.020454 -0.530403 
-5.269050 3.182676 0.531476 
-1.234229 4.711313 -0.359494 
0.165205 5.247660 -0.518847 
-5.302272 3.560191 0.496160 
-5.302272 3.560191 0.496160 
-5.302272 3.560191 0.496160 
-1.632086 -0.084447 11.601330 
-3.454861 4.078988 0.616148 
-3.589031 4.034895 0.621631 
-3.589031 4.034895 0.621631 
-1.026966 5.347575 -0.277710 
-1.026966 5.347575 -0.277710 
-4.149368 4.474848 0.545066 
-4.409069 4.678348 0.477494 
-3.945652 4.850188 0.500052 
-0.881050 6.058880 -0.312409 
-3.803427 5.028167 0.467801 
-3.383478 5.192641 0.407345 
-2.045046 5.750648 0.075865 
-2.679329 6.287516 0.047313 
-2.375415 6.701451 0.011608 
-0.678908 -6.537058 0.227921 
-0.184361 -4.939014 -4.014255 
-1.262420 -5.939967 0.611723 
-1.262420 -5.939967 0.611723 
-2.298016 -5.651035 0.655449 
0.048850 -4.336388 -0.130778 
-0.832676 -4.968334 0.533571 
0.093307 -4.134074 -0.183874 
0.093307 -4.134074 -0.183874 
5.556230 -3.075370 0.130205 
-2.733052 -5.161846 0.644335 
-2.608711 -5.097864 0.649222 
-2.164536 -4.962814 0.660709 
-3.112564 -5.098490 0.626794 
-3.112564 -5.098490 0.626794 
1.292319 -3.401751 -0.250189 
-2.156742 -4.655488 0.640418 
0.948814 -3.230240 -0.239239 
-2.868486 -4.613135 0.610565 
-2.868486 -4.613135 0.610565 
1.242025 -3.077001 -0.263918 
1.075725 -3.103891 -0.244535 
-2.247435 -4.246819 0.566173 
-2.247435 -4.246819 0.566173 
1.231822 -2.792133 -0.275205 
1.094395 -2.814267 -0.246676 
1.094395 -2.814267 -0.246676 
-0.434088 -4.552161 0.989387 
0.785788 -2.704500 -0.248014 
-3.592352 -4.103090 0.509299 
-3.168515 -3.692187 0.452951 
-3.302203 -3.634746 0.416022 
1.460833 -1.956507 -0.273692 
1.460833 -1.956507 -0.273692 
-3.769708 -3.406079 0.279860 
5.639156 -1.190423 0.119562 
-1.906571 1.895315 -7.351571 
-1.684694 -2.032096 -0.186563 
4.384312 -0.759344 0.395524 
4.555475 -0.480924 0.363564 
3.956317 -0.627248 0.435360 
3.956317 -0.627248 0.435360 
6.062991 0.053760 0.114102 
6.062991 0.053760 0.114102 
4.762481 -0.372276 0.329202 
3.540231 -0.702149 0.485323 
5.931165 0.075882 0.155645 
4.810935 -0.060730 0.322549 
2.430615 -0.598201 0.390625 
-1.499249 -1.184901 0.038780 
-1.393355 -1.067073 0.041161 
2.667023 -0.342887 0.434965 
3.700205 0.054110 0.481760 
3.700205 0.054110 0.481760 
-3.618612 -0.303973 -1.369698 
-2.013989 -0.818123 0.049590 
5.802031 0.837653 0.127509 
2.326198 0.708549 -4.197199 
-2.559531 -0.862789 0.040220 
4.866801 0.644027 0.251123 
4.709546 0.636759 0.264588 
-1.737823 -0.641752 0.085057 
4.768217 0.771589 0.246401 
2.592202 0.241813 0.353864 
5.191744 0.973053 0.191092 
5.181808 1.122540 0.180738 
5.181808 1.122540 0.180738 
-3.409630 -0.581250 -0.011364 
2.370350 0.492565 0.357136 
-2.042855 -0.281742 0.073317 
-3.766023 -0.513346 -0.060926 
5.417306 1.365151 0.145056 
5.417306 1.365151 0.145056 
4.958779 1.265179 0.169865 
4.958779 1.265179 0.169865 
-1.731222 -0.121026 0.085386 
-1.731222 -0.121026 0.085386 
-1.731222 -0.121026 0.085386 
-3.911584 -0.458882 -0.056195 
2.506213 0.723621 0.318458 
2.506213 0.723621 0.318458 
6.206899 1.800333 -0.033667 
-0.443193 0.383821 0.049425 
-0.669827 0.377183 0.058193 
-1.331025 0.296618 0.051825 
-1.023965 0.494613 0.029181 
4.205615 1.663749 0.160089 
4.356170 1.723984 0.145188 
4.356170 1.723984 0.145188 
5.417227 2.320790 -0.004242 
-1.478001 0.854928 0.000432 
-4.039354 0.428295 -0.164977 
-3.836499 0.471512 -0.122524 
-3.836499 0.471512 -0.122524 
4.027472 2.030781 0.113504 
3.702093 1.973051 0.121889 
-0.102551 1.331564 -0.041855 
0.190069 1.509717 -0.073224 
5.221863 2.645683 -0.048832 
0.510608 1.684758 -0.116983 
0.077688 1.685409 -0.088117 
-2.266832 1.175028 -0.054063 
-1.132027 1.480938 -0.069921 
-0.688213 1.960242 -0.147731 
1.149165 2.513752 -0.306369 
-0.539624 2.230057 -0.203585 
-2.714864 1.838049 -0.171906 
-1.495591 2.649049 -0.355318 
0.758442 3.694197 -0.390005 
-0.072125 3.611439 -0.369429 
-4.875901 2.150024 0.528283 
-0.234811 3.724190 -0.374767 
-5.036053 2.181060 0.497649 
-4.405588 2.421997 0.564303 
-0.186346 4.190801 -0.392974 
-0.810691 4.269313 -0.416700 
-5.541634 2.999389 0.485198 
-5.541634 2.999389 0.485198 
-6.078283 3.037118 0.350713 
-6.078283 3.037118 0.350713 
-5.130981 3.497081 0.523735 
-5.741744 3.515292 0.390989 
-3.966073 3.805390 0.607725 
-1.467640 5.372991 -0.169723 
-2.055426 5.956004 0.050063 
-2.398393 6.436326 0.054347 
-2.398393 6.436326 0.054347 
-2.773100 6.577416 -0.018119 
-0.067442 -5.273654 0.055733 
-1.129062 -5.306780 0.648612 
-4.033033 -5.596981 0.478365 
5.317736 -3.201095 0.077315 
0.795982 -4.086970 -0.138008 
-2.339717 -5.278761 0.657399 
-2.339717 -5.278761 0.657399 
-3.105368 -5.391260 0.632187 
-0.076453 -3.761298 -0.238036 
-1.867619 -4.685193 0.622391 
-3.170527 -4.801394 0.614449 
-0.045865 -3.439006 -0.282293 
-0.045865 -3.439006 -0.282293 
-3.548514 -4.617907 0.572380 
0.624405 -3.159581 -0.234376 
1.372517 -2.907605 -0.278221 
1.372517 -2.907605 -0.278221 
-2.318718 -3.909075 0.472626 
1.943901 -2.337158 -0.366258 
0.891978 -2.430156 -0.246197 
-3.463289 -3.803216 0.446389 
-3.068949 -3.241525 0.354128 
-3.499458 0.340336 -2.061785 
-3.453719 -2.543902 0.059649 
3.799284 -0.585190 0.469431 
-3.362540 -1.647167 -0.123431 
-2.846170 -1.454128 -0.032537 
-1.314603 -1.069855 0.026291 
4.116817 -0.081619 0.434418 
4.473403 0.171874 0.324721 
5.332248 0.443374 0.216771 
3.957097 0.021845 0.451864 
3.274910 -0.010811 0.520650 
-3.135019 -1.040624 -0.029878 
5.221535 0.621009 0.234802 
-0.839753 -0.600660 0.070175 
-2.265521 -0.804037 0.054769 
3.631867 0.238917 0.493795 
3.462812 0.174504 0.504022 
-3.624526 -0.300595 -1.517999 
6.149519 1.080368 0.056975 
6.149519 1.080368 0.056975 
2.386920 0.171532 0.368122 
-4.143719 -0.880745 -0.170030 
4.100791 0.623620 0.303740 
5.778060 1.254325 0.118770 
-2.260332 -0.619508 1.944715 
-2.044263 -0.285657 0.065978 
3.537434 0.712534 0.425845 
3.537434 0.712534 0.425845 
-3.302231 -0.481081 0.016533 
2.683520 0.624250 0.365299 
5.108702 1.271672 0.186775 
-1.710180 -0.111829 0.122178 
-2.133108 -0.117264 0.056318 
4.809887 1.336566 0.188115 
2.864908 1.027360 0.295480 
-3.483593 -0.004951 -0.027409 
3.685681 1.410535 0.226948 
4.197536 1.674039 0.166392 
-0.633641 0.872231 0.008644 
-2.392006 0.632250 -0.023718 
-0.409419 2.297554 1.583616 
-0.580267 1.090800 -0.015792 
5.998794 0.237837 4.577629 
-3.473021 0.575182 -0.056483 
5.130141 2.459611 -0.015806 
5.130141 2.459611 -0.015806 
4.628922 2.378277 0.034376 
-0.939986 1.237954 -0.040501 
1.377111 0.795527 3.086736 
0.726619 1.678381 -0.075001 
-2.270940 1.169136 -0.067300 
0.335229 1.836074 -0.085566 
0.037164 1.970668 -0.119544 
-1.533144 2.354841 -0.267608 
-2.262234 2.501284 -0.296124 
-5.807248 2.127408 0.176477 
-5.038083 2.179566 0.493202 
-5.094865 2.376899 0.529154 
-4.839783 2.724686 0.587522 
-0.818293 4.268162 -0.426784 
-4.460790 2.975614 0.626739 
-6.153920 2.841019 0.309403 
-5.432422 3.145353 0.502679 
-0.999626 4.687475 -0.353227 
-3.573838 3.597244 0.643767 
-5.353915 3.378385 0.502545 
-5.138480 3.749041 0.513117 
-5.342995 3.993267 0.421589 
-4.088981 4.205641 0.587994 
-3.187688 4.645699 0.523943 
-3.993626 4.477547 0.548035 
-2.054669 5.957663 0.053349 
0.028617 -5.527654 0.072815 
-1.475495 -5.685206 0.608581 
-1.300888 -5.356051 0.625993 
-1.800698 -0.425626 -10.928753 
0.784142 -4.101750 -0.172907 
-2.960632 -5.363986 0.618530 
-0.993506 -4.821212 0.520648 
-2.154384 -5.192404 0.663859 
-3.820038 -5.353734 0.545422 
1.385385 -3.620327 -0.276580 
0.238733 -3.764266 -0.228503 
-2.041643 -4.816606 0.642490 
-2.041643 -4.816606 0.642490 
0.469872 -3.551620 -0.215102 
-1.937670 -0.415096 -9.791617 
1.131829 -2.938635 -0.281576 
0.897490 -3.006340 -0.219861 
-3.035894 -4.399062 0.580661 
-4.319464 -4.351534 0.424028 
0.585688 -2.619049 -0.276936 
0.898966 -2.316659 -0.237181 
6.692735 -0.650786 -0.126067 
-1.717420 -2.223180 -0.211232 
-2.410840 -2.323459 -0.088340 
-1.891063 -1.918088 -0.113609 
5.862952 -0.227279 0.166596 
-2.326116 -1.712084 -0.066113 
5.771576 0.018120 0.170654 
-3.164760 -1.640748 -0.123537 
-0.493984 -1.073964 0.084695 
4.039016 -0.411989 0.474700 
2.975735 -0.637166 0.461089 
1.330535 -1.551017 -3.360629 
3.872650 -0.271999 0.496809 
5.232356 0.217795 0.232615 
-2.098005 -1.173076 0.014101 
3.621339 -0.202833 0.484392 
6.362341 0.727397 0.022033 
6.362341 0.727397 0.022033 
3.406394 -0.175951 0.522263 
-2.402965 -1.057816 0.015661 
-3.291413 -1.196330 -0.044607 
2.619109 -0.047447 0.390043 
-0.854270 -0.356990 0.067212 
5.604916 1.371140 0.125447 
3.167806 0.701791 0.404467 
2.903939 0.664940 0.394176 
2.903939 0.664940 0.394176 
3.568685 1.078296 0.316042 
4.112039 1.491323 0.194478 
-1.741840 0.401442 0.049059 
-1.203796 0.601285 0.028712 
-1.203796 0.601285 0.028712 
-3.961574 0.132732 -0.103280 
3.827338 1.620201 0.195184 
5.303934 2.197044 0.035830 
3.313600 1.820168 0.165527 
-3.000787 0.667856 -0.038006 
-3.000787 0.667856 -0.038006 
-3.945373 0.647436 -0.165486 
-3.413411 0.800926 -0.087013 
-3.045702 0.939911 -0.088655 
-0.788210 1.804865 -0.121764 
-1.439629 1.612447 -0.101600 
-1.649618 1.748980 -0.137588 
-2.452532 1.596950 -0.144022 
-2.275821 2.229410 -0.237481 
-1.086482 2.574408 -0.341703 
0.339071 3.776250 -0.375960 
0.339071 3.776250 -0.375960 
-4.723902 2.357759 0.550490 
-0.099523 4.009480 -0.399027 
-5.131028 2.604766 0.525679 
-5.467502 2.680657 0.491440 
-4.664335 2.835496 0.616560 
-1.040624 4.379650 -0.391179 
0.369084 4.765905 -0.463991 
0.369084 4.765905 -0.463991 
-1.796388 -0.178468 10.425974 
-0.844409 4.489819 -0.377754 
-0.844409 4.489819 -0.377754 
-4.802547 3.078282 0.591795 
-3.515521 3.385368 0.649790 
-3.515521 3.385368 0.649790 
-0.715587 4.676892 -0.371466 
-0.809325 5.049369 -0.347424 
-3.431593 4.713297 0.526794 
-2.136974 6.480219 0.026586 
0.932238 -4.496380 -6.506021 
0.524142 -5.560018 -0.035550 
0.256815 -5.438810 -0.011656 
0.548589 -4.796505 -0.106603 
0.920594 -3.708677 -0.221373 
1.069230 -3.450895 -0.207919 
-2.358410 -4.496574 0.592633 
0.566555 -3.294734 -0.244506 
0.566555 -3.294734 -0.244506 
-4.404477 -4.646422 0.464879 
0.384948 -3.050554 -0.239387 
-3.907802 -4.456252 0.509050 
0.643537 -2.901418 -0.247693 
-3.230925 -4.162169 0.550368 
-4.078466 -3.776383 0.349965 
-4.078466 -3.776383 0.349965 
1.029958 -1.767904 -0.208002 
-2.148870 -2.301505 -0.123064 
4.980711 -0.664489 0.305121 
-2.730995 -2.108164 -0.094094 
-3.425891 -2.257722 -0.093350 
4.922285 -0.223046 0.304546 
4.922285 -0.223046 0.304546 
-2.380015 -1.348501 -0.021184 
-1.868170 -1.122777 0.022180 
-2.653390 -1.184034 0.000917 
2.371189 -0.100534 0.362486 
-3.261963 -0.759513 -0.028723 
3.782034 0.661866 0.344368 
-0.519978 -0.060400 0.094923 
4.583037 1.311253 0.194233 
3.311434 0.940163 0.364439 
3.929343 1.209227 0.237219 
-3.668860 0.193116 -0.075216 
2.893924 1.484543 0.187929 
6.629617 2.331208 0.103885 
4.804802 2.226027 -0.077977 
-4.324111 0.493828 -0.276030 
3.676574 2.093223 0.084029 
-0.700519 1.428598 -0.058259 
-1.291859 1.313062 0.015626 
-2.478246 1.261612 -0.076854 
-2.478246 1.261612 -0.076854 
-5.409377 2.401385 0.470020 
-0.617779 4.265790 -0.414486 
-0.439813 4.478489 -0.378136 
-3.235225 3.515417 0.633652 
-3.235225 3.515417 0.633652 
-3.353435 3.792845 0.634693 
-3.762730 3.888578 0.627490 
-5.020208 4.322792 0.446394 
-4.570444 -5.197792 0.351652 
4.551482 -1.260265 0.277920 
4.781999 -0.945502 0.303493 
-3.105915 -2.504669 -0.006053 
4.311823 -0.470380 0.392314 
-2.205316 -1.610555 0.004952 
4.755166 0.286692 0.298456 
4.963750 0.631676 0.250224 
-2.174001 -0.449461 0.054186 
5.145226 1.503558 0.144794 
2.616259 0.947613 0.292288 
0.589734 0.757654 -0.002979 
-1.486191 0.420342 0.052961 
-0.909989 0.833469 0.009434 
-2.779729 0.433203 -0.014931 
-2.199751 0.870352 -0.031356 
3.674885 2.085015 0.070035 
-0.364022 1.365709 -0.049670 
-0.364022 1.365709 -0.049670 
-1.311612 1.290066 -0.040141 
-1.856849 1.163060 -0.061609 
-1.856849 1.163060 -0.061609 
-0.478239 1.914532 -0.137907 
-0.478239 1.914532 -0.137907 
0.650897 3.986980 -0.430791 
0.544325 4.395230 -0.455157 
0.092172 4.431146 -0.420468 
-4.776561 3.632057 0.543778 
-4.370163 3.777244 0.582286 
-4.370163 3.777244 0.582286 
-4.146434 4.842049 0.477769 
-2.393565 -5.018475 0.679400 
5.853020 -1.284332 0.018219 
5.811289 0.401605 0.145436 
6.025531 0.877769 0.137060 
3.307187 0.538109 0.398327 
-3.517916 -0.225376 -0.054081 
-0.886035 0.371275 0.043043 
5.663146 1.889339 0.030382 
5.184491 1.964455 0.093533 
4.463760 2.025833 0.106444 
1.350867 2.625932 -0.157452 
-1.341919 2.095912 -0.186972 
-1.787000 2.262351 -0.251248 
-0.458003 4.678814 -0.438394 
-3.950727 3.558240 0.656907 
-1.107856 5.055436 -0.314974 
-5.232455 3.829695 0.471923 
-4.338024 4.378204 0.556983 
-2.715581 -4.026111 0.555967 
5.539960 0.804067 0.187758 
5.539960 0.804067 0.187758 
-2.869004 -0.688221 0.036148 
4.285683 0.957977 0.236791 
4.285683 0.957977 0.236791 
3.070058 1.020131 0.337243 
-2.653554 -0.029736 0.024123 
-1.989313 0.326631 0.040508 
-3.284856 0.282041 -0.025669 
4.832555 2.591063 -0.081130 
-0.040636 2.492994 -0.157550 
0.980339 3.263649 -0.350766 
0.980339 3.263649 -0.350766 
1.009206 4.516550 -0.610645 
-5.229836 3.812463 0.449340 
2.328918 3.669703 -0.300384 
-1.433811 -6.187335 0.567052 
-0.025642 -3.113561 -0.319111 
-1.726350 -0.815344 0.065997 
-2.858573 -0.693162 0.040344 
-0.291310 0.891206 0.012376 
-2.754393 1.226000 -0.101491 
4.918689 -0.048889 2.963053 
-0.572832 -6.660689 0.095890 
0.847871 -4.692691 -0.289919 
0.828877 -1.701293 -11.863806 
-3.115699 -4.898813 0.480583 
-1.113551 0.439086 -0.003938 
-2.245056 -3.865109 0.494406 
5.964714 2.450390 -0.065172 
1.794040 1.851291 -0.471324 
-0.245844 3.755985 -0.563268 
-0.024484 0.257056 -0.349860 
-0.024484 0.257056 -0.349860 
