ply
format ascii 1.0
element vertex 792
property float x
property float y
property float z
end_header
-0.493035 0.253327 0.061766 
3.511501 6.310058 0.102967 
0.389616 -0.338418 -0.395135 
0.029216 0.353344 0.050202 
0.029216 0.353344 0.050202 
3.287395 6.373283 0.093322 
4.912753 2.255413 0.147493 
2.728790 6.048997 0.078725 
-5.529860 2.784339 -0.000976 
3.076481 -0.295155 0.086436 
-0.395893 1.305717 12.572960 
2.390784 0.703315 -2.489055 
3.334082 5.823800 0.098645 
3.388869 5.630058 0.104091 
2.830960 5.620024 0.085378 
0.084931 -3.167166 0.080079 
1.214040 3.586400 0.060204 
-3.005104 2.446214 0.022442 
-4.923389 1.906744 0.019192 
4.002526 0.431351 0.108589 
1.363615 0.915543 0.069095 
0.549090 0.345584 0.056766 
2.647528 -2.133457 1.449781 
2.676325 5.151592 0.085149 
1.750281 4.556918 0.068338 
1.082023 3.767294 0.058852 
0.548105 2.858528 0.054549 
3.688509 0.993072 0.112841 
4.228504 0.734608 0.109007 
-5.024592 1.680928 0.009096 
-4.539386 1.944279 0.014077 
3.690304 0.499308 0.098256 
-3.255092 1.998278 0.012875 
2.670374 0.749821 0.108994 
2.460524 0.677441 0.072998 
2.567888 0.669827 0.082955 
-3.342935 1.866066 0.013160 
2.094788 0.743536 0.083967 
1.984592 0.677897 0.090970 
3.603663 -0.216593 0.098801 
-3.255601 1.014508 0.031791 
-3.958213 0.799514 0.027571 
-5.187983 1.578351 0.020114 
2.607369 5.525685 0.085204 
2.652767 5.351539 0.066125 
4.146763 1.716057 0.125010 
-3.385745 2.404692 0.023955 
-2.187440 1.749784 0.017636 
1.682270 0.929536 0.075096 
1.765624 0.706613 0.063074 
4.954571 4.093563 0.176029 
-2.591496 1.984692 0.022832 
2.089283 -1.108593 0.082742 
3.023510 5.769154 0.091212 
-5.080464 2.042513 0.016068 
-0.170081 0.888441 0.052308 
1.358876 1.154889 0.070655 
-3.880493 -2.635809 0.056429 
-0.325238 0.445998 0.049798 
5.011100 1.084486 0.141082 
-0.364957 1.126492 0.038483 
4.142718 0.359432 0.121195 
4.422805 0.050533 0.105089 
-4.312009 0.756837 0.027660 
2.473724 5.053774 0.038806 
4.497174 1.068751 0.124798 
2.084124 0.419650 0.050405 
4.496651 2.655683 0.122825 
4.916894 -0.050141 0.153667 
-4.046841 1.675026 0.025673 
-5.529860 2.784339 -0.000976 
4.358559 4.626578 0.144216 
4.336555 4.506195 0.142810 
3.620924 5.530594 0.108528 
2.699596 5.013507 0.068629 
-5.140084 -0.779702 0.040127 
2.953041 -2.769626 1.720846 
1.113302 2.686771 0.061265 
1.215142 2.256166 0.060999 
0.250541 1.761264 0.048161 
4.564313 -0.335806 0.113002 
3.390296 0.215219 0.098885 
0.428535 0.918698 0.056517 
0.822038 0.860282 0.063173 
5.140602 -1.189902 0.120569 
-3.957606 2.080871 0.010634 
1.288787 0.727655 0.063340 
1.288787 0.727655 0.063340 
-2.102611 1.285409 0.030055 
-4.664316 1.606261 0.011533 
-5.276440 1.341961 0.020998 
3.179451 -0.442062 0.084112 
-4.723427 1.171553 0.020135 
-4.723427 1.171553 0.020135 
-1.367136 -0.396833 0.037298 
1.611557 -0.437861 0.073800 
-0.566147 -0.679520 0.046504 
2.076757 -0.728293 0.069092 
-3.770141 0.797676 0.027202 
0.082186 -0.999640 0.053811 
2.081966 -1.491300 0.073905 
-3.920145 0.406975 0.030658 
-3.882699 -0.657107 0.013489 
5.476165 -0.889206 0.121258 
2.309894 4.481002 0.074150 
2.360175 4.239420 0.070945 
-5.579188 3.859545 -0.007916 
4.915724 0.703706 0.142531 
0.007184 1.583794 0.053276 
3.510891 0.603205 0.099717 
4.085541 0.149032 0.106586 
1.850382 0.886780 0.074440 
5.420932 -1.053996 0.119834 
-0.440090 0.788981 0.045318 
0.618914 0.910269 0.065104 
0.701596 0.860131 0.057424 
0.387866 0.774405 0.054605 
0.387866 0.774405 0.054605 
0.549090 0.345584 0.056766 
4.904425 -1.570227 0.125297 
-5.257793 1.071336 0.024755 
1.442722 0.042109 0.080018 
3.847393 -1.013037 0.107356 
-2.448216 0.966763 0.013828 
3.391822 -0.852878 0.087089 
-5.025215 0.459906 0.009887 
2.203782 -1.595514 0.069298 
2.203782 -1.595514 0.069298 
-3.180016 0.111105 0.034052 
-3.394405 0.111286 0.036327 
-4.482737 0.117456 0.038309 
-5.072774 -0.261471 0.047569 
-5.019892 -0.456616 0.053291 
-2.795748 -0.695189 0.024379 
3.520141 5.632902 0.103861 
2.292538 4.749490 0.058589 
1.899316 4.344461 0.063187 
2.662151 4.072208 0.070595 
1.759221 4.225973 0.076226 
0.806257 3.475316 0.040738 
0.806257 3.475316 0.040738 
0.630138 2.529613 0.049568 
0.630138 2.529613 0.049568 
1.109770 2.446024 0.061659 
1.014270 1.517988 0.039711 
-4.977357 2.397958 0.006912 
-2.559057 2.135721 0.023859 
3.641569 -0.049621 0.103728 
1.464655 0.782034 0.065605 
-4.707121 1.885981 0.009857 
3.603663 -0.216593 0.098801 
4.244595 -0.540501 0.101053 
0.566059 0.574514 0.056586 
-0.909764 0.014851 0.049194 
3.880662 -1.262923 0.084908 
-3.255601 1.014508 0.031791 
-3.322533 -0.174336 0.037119 
-3.304625 -0.095227 0.017192 
-4.418514 -0.113800 0.041507 
2.560849 5.854057 0.070516 
2.411444 4.104217 0.082578 
0.123593 1.498082 0.045804 
-0.033355 0.716953 0.068106 
4.442264 -0.591709 0.112337 
3.120403 -0.049546 0.093322 
-0.325238 0.445998 0.049798 
-0.107373 0.495659 0.050009 
-4.439470 1.767826 0.015426 
2.048594 0.209434 0.072725 
-2.828685 1.376898 0.029647 
-2.828685 1.376898 0.029647 
4.007511 -0.972676 0.120187 
-0.595112 -0.138315 0.059504 
3.097860 -0.591192 0.078471 
0.155330 -0.479791 0.057250 
-2.560673 0.660006 0.057819 
1.158732 -0.149158 -8.278881 
-4.094723 0.558069 0.022162 
5.288008 1.887053 0.166504 
4.527806 1.591546 0.135990 
0.733570 3.153191 0.049116 
1.554024 0.893800 0.083421 
4.948705 -1.303802 0.100464 
-1.092396 0.165020 0.032394 
-1.333124 0.075954 0.060548 
-5.656767 0.758695 0.029543 
2.880639 -0.451428 0.093949 
0.628942 -0.016501 0.060129 
1.749145 -0.258185 0.064540 
-4.035173 1.123154 0.029613 
1.650791 -0.631490 0.067534 
-4.877779 0.639423 0.021223 
-4.312009 0.756837 0.027660 
-3.062327 -0.013358 0.020773 
1.443587 3.667308 0.044146 
-6.709685 2.246331 0.014162 
-5.657072 1.995088 0.007939 
2.194418 1.092044 0.074974 
0.825326 0.733616 0.057151 
-4.791098 1.240936 0.014762 
-4.791098 1.240936 0.014762 
-3.274898 0.315338 0.022833 
-4.312587 0.349213 0.032020 
4.612188 0.424949 0.167813 
-1.005433 0.753934 -0.002815 
4.354621 -0.279045 0.084941 
2.174490 -0.176839 0.065503 
-2.184900 0.871601 0.039878 
1.827920 3.781737 0.081611 
1.082393 0.267865 0.071980 
2.703581 0.056743 0.072972 
-3.842556 -0.178857 0.168986 
-3.842556 -0.178857 0.168986 
3.387531 5.507482 0.101427 
3.068604 4.332032 0.092355 
2.953041 -2.769626 1.720846 
1.297904 2.980521 0.059388 
1.297904 2.980521 0.059388 
1.223296 2.887851 0.055004 
1.223296 2.887851 0.055004 
-4.732205 -1.036556 0.042765 
-0.024243 2.616243 0.034289 
1.113302 2.686771 0.061265 
-2.018529 1.016016 -0.802368 
2.735532 7.134588 -0.555600 
4.336196 -0.826981 0.101466 
-3.957606 2.080871 0.010634 
-0.978104 -4.239407 -2.291379 
-5.145474 1.943475 0.026262 
1.251162 0.045866 0.061154 
-5.083014 1.818837 0.009522 
0.813057 0.031622 0.062750 
0.813057 0.031622 0.062750 
1.552788 -0.307361 0.070355 
-0.996661 -0.252511 0.053271 
-1.748862 0.245011 0.040393 
-5.664060 0.450938 0.048792 
-0.351968 -0.459136 0.054999 
-3.173799 0.860572 0.014377 
0.180501 -0.719591 0.054857 
-3.904783 0.958184 0.021478 
3.364068 -1.919250 0.080217 
3.364068 -1.919250 0.080217 
3.138888 -1.818436 0.076242 
3.138888 -1.818436 0.076242 
-1.261430 -0.764968 0.052732 
-4.888013 0.373873 0.037228 
2.125777 -2.202327 0.056187 
-3.188305 -0.125348 0.040027 
2.628547 -2.772803 0.068369 
2.939971 -1.152998 0.076750 
-4.553784 -0.703327 0.066905 
-4.103337 -1.194479 0.059646 
2.803400 4.789051 0.081858 
1.064236 4.141647 0.040312 
1.064236 4.141647 0.040312 
0.632048 3.240209 0.050198 
0.632048 3.240209 0.050198 
1.027820 3.188910 0.052563 
2.602107 -1.540125 0.069058 
1.425206 2.294100 0.066557 
1.132940 2.109931 0.090599 
2.567888 0.669827 0.082955 
0.006670 0.531090 0.057226 
0.006670 0.531090 0.057226 
-1.180442 -4.812454 0.077538 
-4.857203 1.256890 0.018010 
3.622266 -1.731502 0.094923 
0.479564 -0.709434 0.058716 
0.082186 -0.999640 0.053811 
-0.280927 -1.103659 0.043255 
-0.260920 -1.283916 0.050168 
3.619061 -2.786216 0.076882 
1.501705 -1.806990 0.078693 
2.751572 -2.499183 0.068478 
-2.239196 -1.491176 -2.953086 
-2.178057 -0.652020 0.044878 
-3.987466 0.181558 0.033699 
0.616441 -1.811223 0.053555 
0.014371 -2.068245 0.052843 
-3.254171 -0.430690 0.037031 
-5.807644 -0.466037 0.046303 
-4.901248 -0.549942 0.055127 
1.600985 4.584993 0.050122 
0.961750 3.032054 0.051946 
0.462008 2.614543 0.043323 
0.763413 2.318950 0.057751 
-0.216950 1.264466 0.041694 
-3.078622 2.155599 -0.005593 
1.798143 0.323265 0.080871 
-5.977571 1.802355 0.028434 
0.566059 0.574514 0.056586 
1.831843 0.071462 0.065727 
-2.466797 1.296969 0.026423 
-1.226011 -0.365568 0.051769 
0.848005 -1.739823 0.049118 
-4.871005 0.017589 0.046225 
2.052590 -2.631843 0.072646 
0.062545 -2.328472 0.058170 
-5.161692 -0.615755 0.042151 
-4.595107 -1.133627 0.052884 
-0.850213 0.920416 -6.696122 
4.694275 2.169228 0.137991 
3.069382 -2.670128 1.633939 
2.270939 3.518928 0.102195 
1.661135 3.376399 0.064491 
0.681497 2.750920 0.055431 
-6.746928 2.844587 0.001781 
4.241568 0.141128 0.112115 
2.797489 0.544605 0.048256 
-3.724735 2.285377 0.006948 
1.670676 0.466767 0.081640 
4.664404 -1.360387 0.102329 
1.166168 -0.074559 0.057908 
-4.298556 1.406743 0.016424 
3.800794 -2.275104 0.068644 
3.971751 -2.428758 0.093458 
-3.487961 0.619946 0.027001 
1.643479 -1.749462 0.075740 
0.132383 -1.531546 0.057583 
2.356958 -2.341324 0.063253 
-4.860772 0.037083 0.053374 
-3.993268 -0.642589 0.040972 
-3.263489 -1.225444 0.044516 
0.892256 2.541282 0.050388 
2.315514 1.369039 0.101377 
-5.424868 2.670714 -0.038393 
-0.752367 0.616602 0.035370 
-0.721341 0.200853 0.059490 
3.683903 -1.512060 0.097097 
-0.351481 -0.266337 0.049823 
-5.100083 1.336737 0.028502 
1.274590 -0.773606 0.069104 
2.778842 -1.807000 0.052860 
-4.877779 0.639423 0.021223 
2.924543 -2.673961 0.072411 
-4.143351 -0.366422 0.040019 
0.678223 4.374013 0.006072 
1.486291 4.642586 0.032063 
-0.472694 3.716360 0.027678 
4.735860 1.673288 0.124272 
0.952484 2.184998 0.056585 
0.952484 2.184998 0.056585 
-5.251880 3.330611 0.000220 
4.851135 -0.408865 0.139728 
4.603427 -0.832990 0.142751 
-1.869526 0.105116 0.050287 
-0.570587 -1.243768 0.066051 
-0.570587 -1.243768 0.066051 
1.194315 -1.571759 0.068061 
2.536171 -2.044803 0.076945 
2.536171 -2.044803 0.076945 
1.063866 -1.956371 0.072264 
-3.777356 -0.448564 0.058811 
-3.458534 -0.488016 0.052758 
-4.400126 -0.553684 0.049271 
-4.209295 -1.068599 0.046710 
1.697473 3.148427 0.043513 
4.035191 0.744555 0.091610 
0.265968 1.997233 0.035565 
-2.098034 0.424422 0.026942 
0.423580 -1.012568 0.052097 
0.828270 -1.308780 0.058291 
3.905589 2.007534 0.134478 
4.916894 -0.050141 0.153667 
-5.065273 2.810005 -0.054849 
3.417135 -0.606972 0.103343 
4.950750 -2.021859 0.089478 
-0.279445 -0.664431 0.047784 
-5.389999 0.459436 0.031877 
-5.389999 0.459436 0.031877 
5.139848 1.680383 0.222139 
1.724231 5.124014 0.013715 
-5.720690 3.333749 -0.018593 
1.740536 6.084480 1.574430 
3.740315 6.633026 0.120594 
2.699596 5.013507 0.068629 
3.056758 4.650867 0.095030 
3.268131 4.278262 0.096441 
2.218922 4.216049 0.078351 
2.732196 3.815940 0.081154 
1.041357 4.147308 0.053981 
1.041357 4.147308 0.053981 
2.409848 3.337942 0.079706 
-2.840951 3.570189 5.003854 
-2.840951 3.570189 5.003854 
3.765371 1.739801 0.108163 
3.860160 1.676130 0.116641 
-0.024243 2.616243 0.034289 
-2.509338 0.641469 2.206386 
1.581955 1.624360 0.065634 
-5.395375 3.647300 -0.010941 
-0.155224 0.904942 -12.557616 
3.372831 -0.103568 0.099326 
-5.395365 3.200622 -0.015371 
3.153042 -1.902899 -0.385739 
-0.743613 1.904496 -1.361576 
3.609054 -1.324875 0.081330 
-5.748721 2.304800 0.012835 
3.450467 -1.299774 0.091668 
3.450467 -1.299774 0.091668 
2.939971 -1.152998 0.076750 
3.116597 -1.484362 0.084499 
-2.359107 0.802638 0.036638 
-6.249321 1.929457 0.042131 
3.719322 -2.056331 0.079507 
0.373822 -0.250853 -0.643690 
3.364068 -1.919250 0.080217 
1.087713 -1.005928 0.063618 
-4.615621 1.318100 0.016253 
0.098796 -0.680423 0.052676 
0.098796 -0.680423 0.052676 
-1.396561 -0.199709 0.047933 
-4.614230 1.168625 0.021764 
1.925668 -1.610073 0.078694 
1.332773 -1.387512 0.057440 
3.300123 -2.268656 0.076140 
1.040769 -1.278028 0.061486 
1.040769 -1.278028 0.061486 
-5.350292 1.230793 0.027468 
-2.725738 2.283477 -6.418259 
-1.590855 -0.598113 0.043029 
0.953490 -1.589392 0.097232 
0.219572 -1.440577 0.062468 
-0.148478 -1.408519 0.062071 
-6.012823 0.712122 0.048716 
0.338757 -1.811026 0.053685 
1.405478 -2.153094 -2.636146 
1.870925 -2.631835 0.066505 
-0.779102 -1.689492 0.074047 
4.726105 -4.204094 0.070384 
-3.180663 -0.576423 0.048013 
-1.234425 -1.661846 0.045984 
-2.992743 -0.791418 0.070769 
2.737467 -3.402378 0.067128 
2.737467 -3.402378 0.067128 
-0.402183 -2.094203 0.045312 
-4.921336 -0.095484 0.048007 
-0.926636 -2.028493 0.061952 
-0.821117 -2.084163 0.064421 
2.784840 -3.786110 0.056853 
-1.144098 -2.401701 0.048799 
-0.464313 -3.433540 -5.778875 
0.546118 -2.991675 0.066669 
-5.299551 -0.668224 0.049527 
-4.040539 0.651271 -1.975549 
-2.689320 -1.940059 0.055717 
-4.171944 -1.304705 0.044228 
1.185121 -3.424712 -3.711586 
0.593174 -3.757615 0.070830 
-0.853543 -3.846365 0.064977 
-0.983178 -3.910072 0.075024 
-3.346729 -2.846621 0.057867 
-5.591560 -1.988335 0.063781 
-5.576260 -2.002478 0.105679 
-5.523286 -2.144113 0.058105 
-0.463662 -4.731724 0.058830 
-3.820149 -2.992768 0.075112 
-0.579132 -4.801050 0.057709 
-4.405997 -3.272938 0.085351 
-1.485045 -4.964148 0.086942 
-1.485045 -4.964148 0.086942 
-0.474005 -6.152725 0.070843 
3.345197 5.075693 -2.544872 
2.627030 6.620232 0.069704 
3.520141 5.632902 0.103861 
1.907410 4.611879 0.038330 
2.591851 3.765732 0.084269 
1.490210 5.526730 -1.882498 
3.956035 1.597374 0.114073 
1.468344 2.424288 0.059913 
-0.302403 2.293539 0.055456 
4.810568 0.035642 0.110623 
3.690304 0.499308 0.098256 
0.250541 1.761264 0.048161 
3.049923 0.509643 0.099482 
-0.362095 0.461759 -12.834733 
-2.559057 2.135721 0.023859 
-5.391755 3.049202 -0.006898 
2.015774 0.962087 5.453728 
4.124531 -0.753876 0.098398 
-3.060213 3.353645 -7.453041 
1.572791 -0.059961 0.086912 
1.572791 -0.059961 0.086912 
0.770116 0.155565 0.070525 
0.770116 0.155565 0.070525 
0.985811 -0.063902 0.067763 
3.063624 -1.109681 0.086242 
3.063624 -1.109681 0.086242 
-4.174293 1.287427 0.022774 
-4.174293 1.287427 0.022774 
-0.005564 -0.649819 0.061743 
-0.005564 -0.649819 0.061743 
3.384418 -2.084096 0.080159 
3.384418 -2.084096 0.080159 
-0.238846 -0.665574 0.034906 
-0.238846 -0.665574 0.034906 
1.063068 -1.140624 0.055078 
-0.889524 -0.451091 0.037829 
-0.889524 -0.451091 0.037829 
3.315810 -3.663110 2.575523 
-0.905781 -0.575481 0.045929 
3.231101 -2.429864 0.051469 
0.778241 -1.656160 0.048925 
3.395489 -2.871678 0.062267 
0.326458 -1.561461 0.047530 
0.326458 -1.561461 0.047530 
1.751331 -2.412185 0.054272 
2.620794 -2.983145 0.066096 
-0.912682 -1.605926 0.051112 
-1.052560 -1.757140 0.054508 
-0.763542 -1.892343 0.054999 
3.578913 -3.768894 0.055609 
-2.063223 -1.322337 0.054964 
2.968954 -3.522568 0.055039 
-0.286871 -2.164437 0.067251 
-5.822624 0.105129 0.053670 
-1.184772 -1.953393 0.056919 
1.914620 -3.185944 0.062695 
1.914620 -3.185944 0.062695 
-1.111512 -2.093518 0.051807 
1.984836 -3.322968 0.064507 
1.984836 -3.322968 0.064507 
1.262546 -3.050561 0.049810 
-2.315037 -1.602844 0.041131 
0.401648 -2.885220 0.047101 
0.401648 -2.885220 0.047101 
0.399197 -2.884621 0.041591 
0.399197 -2.884621 0.041591 
3.958374 -4.848446 0.058579 
2.549315 -4.185683 0.057731 
-3.129081 -1.620468 0.048060 
-3.774577 -1.395178 0.054856 
-0.749262 -3.777977 -5.380237 
-3.834582 -2.127095 0.066402 
-1.577562 -3.549930 -5.458516 
-4.912704 -1.690686 0.056695 
-5.412726 -1.795106 0.068200 
-3.286905 -2.733639 0.057917 
-3.286905 -2.733639 0.057917 
-1.399346 -4.027733 0.028014 
-1.399346 -4.027733 0.028014 
-0.516957 -5.495230 0.044863 
-3.815870 -0.448364 6.882262 
-0.941162 -6.042318 0.054779 
-3.849484 -1.885421 7.107509 
-1.182506 -6.197237 0.081363 
3.546065 5.011002 0.110960 
2.940122 4.863409 0.088149 
2.940122 4.863409 0.088149 
3.421702 4.473816 0.106570 
3.126223 4.184547 0.090605 
2.198770 3.750333 0.071800 
2.538089 3.108650 0.089219 
2.037500 2.870937 0.068060 
4.913365 1.238465 0.159297 
4.913365 1.238465 0.159297 
1.881488 2.740717 0.068893 
2.112196 0.027631 -0.175435 
1.469705 2.443770 0.048688 
1.869376 1.948224 0.037454 
-0.446796 2.287027 0.009108 
-0.185300 2.180901 0.042406 
3.563227 0.503136 0.079274 
-0.322152 4.518688 -3.785811 
-0.042504 1.146554 -12.303203 
2.670374 0.749821 0.108994 
-4.823271 3.633574 -0.010374 
-0.132240 1.171526 0.045735 
-5.836270 3.002313 -0.005784 
-5.582549 2.749539 0.007190 
-6.341023 2.949290 -0.012788 
4.761414 -1.863202 0.122444 
-1.464620 0.450716 0.032754 
-1.831996 0.596101 0.024082 
-6.037778 1.967184 0.003698 
-0.909764 0.014851 0.049194 
-0.795370 -0.102556 0.050925 
-2.375322 0.583211 0.035665 
-1.396328 -0.116660 0.024209 
-1.620042 -0.331569 0.053088 
3.054230 -2.350821 0.070153 
3.054230 -2.350821 0.070153 
2.652946 -2.217438 0.057356 
3.123332 -2.554991 0.067312 
-2.957395 0.088847 0.031450 
3.838051 -2.946731 0.076957 
3.838051 -2.946731 0.076957 
2.751572 -2.499183 0.068478 
3.683621 -2.962780 0.086447 
1.753288 -2.058111 0.060014 
-5.080932 0.743619 0.035461 
1.472416 -2.146053 0.066050 
1.778017 -2.365891 0.076190 
0.349761 -2.121507 0.065083 
2.132879 -2.890157 0.071675 
-0.892311 -1.794528 0.054950 
1.717462 -2.808110 0.066429 
0.803204 -2.446332 0.059656 
-5.183913 0.048798 0.046062 
1.387615 -2.779062 0.072070 
2.358960 -3.214522 0.063813 
-5.208264 -0.194219 0.042382 
-5.072774 -0.261471 0.047569 
1.988798 -3.504597 0.070789 
2.832201 -4.001218 0.052642 
-4.666718 -0.624086 0.042060 
3.506047 -4.399055 0.047259 
2.434813 -3.863378 0.064629 
0.616676 -3.140757 0.036547 
-3.954077 -1.131466 0.057786 
-0.581576 -2.808685 0.056658 
-0.581576 -2.808685 0.056658 
0.950428 -3.435258 0.090521 
0.950428 -3.435258 0.090521 
-4.336767 -1.322286 0.048428 
-4.507460 -1.313216 0.054718 
-1.487277 -3.680429 0.065479 
-3.742641 -2.412271 0.081254 
-3.742641 -2.412271 0.081254 
-0.690862 -4.041289 0.066253 
-3.523688 -3.033128 0.064999 
-4.752712 -2.573554 0.077213 
-3.926636 -3.014521 0.087324 
-3.926636 -3.014521 0.087324 
-1.267940 -5.311984 0.018183 
-0.401016 -5.831001 0.079404 
-1.191723 -5.562222 0.051140 
-0.357111 -6.050633 0.057380 
3.426447 6.822812 0.088157 
3.544271 5.010771 0.107410 
5.186602 2.199903 0.114410 
2.187134 3.746598 0.050382 
0.983159 3.983835 0.092164 
0.392471 3.526188 0.036490 
0.763413 2.318950 0.057751 
-0.342707 2.125305 0.036201 
-4.797776 3.822412 -0.050048 
3.782749 0.340089 0.100438 
-0.371527 1.377094 0.050426 
1.330549 0.565193 0.071243 
-6.420475 3.123597 0.000643 
-5.755595 2.833599 -0.014843 
4.903875 -1.574678 0.127367 
-1.169297 0.513392 0.022218 
4.588571 -2.089991 0.106877 
4.588571 -2.089991 0.106877 
4.142108 -2.256615 0.080006 
-0.547270 -0.508479 0.052990 
1.940149 -1.907987 0.067021 
4.007758 -2.922815 0.092018 
0.848005 -1.739823 0.049118 
-0.269742 -1.481226 0.054286 
-2.932792 -0.374164 0.038951 
3.199895 -3.182998 0.080159 
4.065205 -3.733259 0.069575 
-1.980942 -1.191613 0.055065 
0.262697 -3.505818 -5.887105 
2.702578 -3.218370 0.061955 
-1.023821 -1.986747 0.044675 
1.492952 -2.940234 0.072044 
1.743712 -3.088183 0.056927 
3.477745 -3.966730 0.040344 
-5.809689 -0.064797 0.068013 
0.114634 -2.629836 0.066226 
1.029313 -3.019235 0.069775 
2.671810 -4.012994 0.047199 
0.627479 -3.139110 0.057745 
-5.161692 -0.615755 0.042151 
3.812273 -4.715217 0.069635 
0.251471 -3.094633 0.079022 
-0.578910 -2.807165 0.061084 
-0.578910 -2.807165 0.061084 
-5.916366 -0.643274 0.061897 
-6.126587 -0.699349 0.046565 
0.278435 -3.805330 0.038243 
0.278435 -3.805330 0.038243 
-1.312244 -3.873051 -5.157344 
-5.001527 -1.850216 0.062013 
-1.261813 -3.863579 0.070872 
-0.745986 -4.772310 0.068385 
-0.645340 -5.721287 0.070564 
-1.095326 -5.904502 0.058281 
1.520526 2.009209 0.044540 
1.958671 1.152522 0.060240 
-0.212146 1.633586 0.035123 
5.384725 -1.681626 0.119637 
-0.858419 0.393105 0.044863 
-0.493035 0.253327 0.061766 
-0.721341 0.200853 0.059490 
4.381823 -2.139486 0.097860 
4.381823 -2.139486 0.097860 
-5.384692 1.800234 0.023292 
-1.001504 -0.417341 0.030653 
-1.248473 -0.527589 0.054054 
-0.766583 -0.716440 0.062451 
-0.766583 -0.716440 0.062451 
0.527267 -1.471188 0.071119 
2.129532 -2.418587 0.078478 
-4.715739 0.310363 0.041014 
-4.718263 0.305842 0.039042 
-4.994693 0.232256 0.019582 
0.455529 -2.427469 0.043285 
-1.888768 -1.514731 0.064349 
-3.598368 -1.465356 0.058526 
-0.771868 -2.991248 0.059147 
-0.482702 -3.096905 -0.014574 
-1.658297 -3.162364 0.068776 
-3.801113 -1.773041 0.047692 
-4.694726 -1.554868 0.053242 
-4.764768 -1.880136 0.050786 
-4.146810 -2.219133 0.044136 
-3.193597 -3.043305 0.081723 
-4.451789 -2.521348 0.112617 
-1.211805 -4.281064 0.089643 
-3.300506 -1.659599 9.363533 
3.110527 5.525054 0.079075 
2.582680 2.862039 0.105534 
2.582680 2.862039 0.105534 
0.080994 3.502010 0.010598 
2.312967 2.636117 0.063369 
5.011100 1.084486 0.141082 
1.071614 1.753083 0.063784 
4.220198 -0.018226 0.131818 
0.672865 1.337125 0.076244 
4.604522 -2.380499 0.103413 
-1.563500 0.216013 0.051170 
1.691571 -1.218679 0.078916 
3.570888 -2.336653 0.086232 
-3.625570 0.382026 0.013538 
-2.298837 -0.422695 0.028584 
-3.012840 -1.016647 0.027987 
0.729939 -2.732905 0.029465 
2.649233 -3.651196 0.058821 
1.536102 -3.323393 0.070418 
-0.809308 -2.604165 0.073258 
2.691714 -4.350004 0.116646 
-1.081052 -2.835953 0.054292 
-2.042659 -0.849950 12.271305 
2.937712 5.083001 0.091130 
2.473724 5.053774 0.038806 
1.220967 4.882267 -0.034170 
2.317588 2.631835 0.076030 
0.050201 2.428343 0.040354 
0.695288 1.917688 0.044506 
-5.910763 3.896366 -0.050413 
3.410589 -1.085035 0.072206 
-2.575757 1.134501 0.018772 
0.412051 -0.287956 0.027160 
0.412051 -0.287956 0.027160 
-1.569882 -0.077251 0.034801 
-2.672697 -0.186067 0.036251 
-1.028391 -1.393957 0.003096 
4.342348 -4.081812 -0.036911 
3.591821 -3.735728 0.065354 
3.591821 -3.735728 0.065354 
-2.902304 -1.449197 0.065814 
-5.093705 -2.125376 0.059201 
-6.542499 -2.394802 0.137251 
4.629363 1.893625 0.051131 
4.950750 -2.021859 0.089478 
-4.046841 1.675026 0.025673 
-5.577573 1.431658 0.075864 
5.530297 -3.273023 0.353826 
-1.899431 -0.448220 0.084238 
-1.899431 -0.448220 0.084238 
-1.899431 -0.448220 0.084238 
3.830750 -3.156145 0.102796 
3.965860 -4.347039 0.049367 
2.022545 -4.114958 0.066407 
-4.994420 -1.131316 0.063227 
2.718798 4.471354 0.081544 
1.827920 3.781737 0.081611 
3.319820 0.497279 0.203407 
-0.107895 -0.006987 0.057110 
-2.293077 0.142327 0.039594 
2.925257 -3.118098 0.038686 
0.541625 -2.213883 0.023718 
0.541625 -2.213883 0.023718 
-2.451268 -1.206100 -0.011747 
-3.594161 -0.879752 0.043483 
-5.058961 1.704370 0.130336 
0.841493 -0.577246 0.048075 
0.841493 -0.577246 0.048075 
0.455555 -2.137862 0.039189 
1.220243 -2.528676 0.041581 
-0.245278 -2.751303 0.019409 
-3.225892 -1.631439 0.127843 
-0.520178 -3.722846 0.093163 
1.620212 -1.177754 0.037376 
-3.887560 0.065745 -0.016067 
-5.009007 -2.997965 0.385400 
