ply
format ascii 1.0
element vertex 351
property float x
property float y
property float z
end_header
-2.926030 1.473935 -0.683708 
2.701777 -2.793875 -0.064360 
6.781438 -0.330283 -0.536284 
3.090283 -2.949451 -0.014357 
3.899657 0.355112 -5.216988 
-1.922817 -0.139976 3.805291 
1.491812 -2.266367 -0.220858 
2.207304 -3.285367 -0.085748 
-1.490681 -4.053451 -0.003054 
0.725702 -0.955604 -0.426373 
6.368450 -0.854762 -0.505682 
4.722373 -1.355429 -0.497084 
6.063632 0.159327 -0.600264 
6.063632 0.159327 -0.600264 
-2.014360 -0.470057 -0.616288 
-1.648739 -3.987302 -0.003946 
0.499158 -4.545724 0.018299 
-0.940078 -3.498663 -0.039788 
-0.923298 -4.441805 0.022658 
-3.347091 -4.020983 0.059042 
-2.417612 -4.978128 0.066751 
4.701769 -1.558675 -0.447708 
6.574348 0.439470 -0.590857 
0.302262 -1.025253 -0.472415 
-0.600054 -1.121429 -0.509959 
-0.600054 -1.121429 -0.509959 
-1.564512 -1.171523 -0.566321 
-3.081927 0.231547 -0.644973 
0.450420 -5.317639 0.156711 
2.406189 -2.100912 -0.120477 
4.562807 -0.372655 -0.580508 
2.415924 -2.853593 -0.073509 
5.694802 -0.292640 -0.584231 
5.694802 -0.292640 -0.584231 
5.308628 0.475992 -0.652593 
-1.960505 -8.203207 1.055427 
-2.157228 -4.025896 0.010747 
-2.288747 -4.218494 0.018319 
6.495171 -0.060787 -0.576328 
6.403314 0.380678 -0.602812 
6.289348 0.635369 -0.627416 
6.090273 0.345029 -0.621273 
-3.644971 -3.130919 -0.019438 
4.842343 0.356020 -0.656434 
-4.040313 -1.830346 -0.083157 
4.907120 1.548140 -0.734676 
0.460533 -0.652432 -0.452293 
-1.187910 -0.291458 -0.568776 
-2.139096 -0.341981 -0.610389 
-2.158347 0.601231 -0.653388 
-3.450168 -0.804178 -0.581183 
-1.121994 -4.432321 0.011106 
-4.671024 -1.948398 4.055896 
2.515920 -1.849711 -0.144152 
-2.551659 -5.178927 0.114589 
6.981848 0.130840 -0.544886 
7.080694 0.564314 -0.568805 
4.722373 -1.355429 -0.497084 
5.078858 -1.128899 -0.514464 
4.275537 -1.226675 -0.517564 
4.922593 -0.503641 -0.580128 
3.706160 -0.881568 -0.545577 
3.995149 -0.316555 -0.586854 
0.650492 -0.678099 -0.426806 
-1.451934 -0.887270 -0.580262 
-1.396596 -0.696285 -0.564126 
-1.569149 -0.639314 -0.585563 
-2.689304 -0.820690 -0.582097 
-5.906570 2.227442 -0.224301 
2.701777 -2.793875 -0.064360 
1.397656 -3.407002 -8.623109 
-3.460491 -5.888956 0.256921 
7.568833 0.941584 -0.554244 
5.722767 0.491625 -0.654265 
5.066163 3.157868 0.547333 
-3.506579 -2.514843 -0.046012 
-4.756907 -1.723717 -0.051870 
0.356848 -0.497656 -0.477360 
-2.248516 -0.723391 -0.592478 
-2.328178 0.130606 -0.649173 
-2.963178 0.513793 -0.679248 
4.598599 -1.751836 5.498465 
-1.782135 -3.576687 -0.007376 
6.568971 0.930423 -0.612872 
-5.622910 1.581491 -0.166840 
-4.570173 5.807371 -0.450005 
-1.463099 -4.253841 0.019120 
7.519700 0.319623 -0.496147 
7.244373 0.370073 -0.575776 
-5.739330 1.317923 -0.154163 
-1.815587 -0.642257 -0.598704 
-2.125302 -0.095203 -0.620350 
-2.921838 -0.163304 -0.638616 
6.210602 0.502001 -0.615189 
-2.103527 -1.040929 -0.567881 
-2.852949 -4.662625 0.091922 
-2.518137 -0.069406 -0.636260 
-0.314654 -4.486228 -0.008451 
-3.410014 -3.236799 0.013015 
7.495903 2.548395 -0.551074 
-2.918961 -3.794059 0.006466 
4.178472 -0.645615 -0.560714 
-3.196243 -4.435498 0.066412 
3.640294 -0.194439 -0.574603 
3.410798 0.470835 -0.596269 
-3.913152 1.500397 -0.713053 
4.394523 1.368379 -0.718581 
5.176774 2.329181 -0.767403 
1.052203 5.118927 6.563743 
-1.808550 -1.426704 -0.526064 
-4.966669 -1.001362 -0.083481 
-1.402956 0.042800 -0.598799 
-5.206362 -0.416200 -0.124557 
-5.206362 -0.416200 -0.124557 
-1.662586 0.817248 -0.607428 
-0.732035 -1.044795 -0.550717 
-2.285190 0.397109 -0.650991 
-2.926030 1.473935 -0.683708 
-2.703999 2.008645 -0.669051 
-6.142817 1.917357 -0.179851 
-6.280346 3.398583 -0.294691 
-4.526546 5.482158 -0.457039 
-5.433333 4.475242 -0.425156 
-1.669510 -2.259002 2.753210 
-1.303370 0.266702 -0.583979 
3.214415 -2.868333 -0.004825 
4.752499 -1.797184 -4.039883 
-3.285665 -5.819941 0.217007 
1.259291 -3.243107 -0.130516 
-0.336449 -4.030794 -0.016299 
6.308719 1.197609 -0.641447 
3.871827 0.144241 -0.604351 
4.009865 0.230828 -0.621802 
4.740750 0.772186 -0.678850 
1.052609 -0.869680 -0.386239 
3.244433 0.404906 -0.564775 
0.605022 -0.907061 -0.442994 
0.831545 3.644534 13.901315 
1.074295 4.785436 5.404422 
5.396652 3.365246 -0.806076 
-0.516730 -0.329134 -0.543328 
-5.284779 0.375252 -0.141619 
-2.870649 -0.405440 -0.619540 
-2.870649 -0.405440 -0.619540 
-3.223399 -0.628293 -0.588308 
-1.829163 0.856478 -0.622798 
-2.158347 0.601231 -0.653388 
-6.105119 0.934527 -0.102838 
-6.248918 1.786407 -0.171268 
-3.326229 1.516724 -0.696326 
-3.326229 1.516724 -0.696326 
-6.439312 2.403359 -0.194847 
7.773147 3.815518 -0.025400 
2.697608 -1.809178 -1.360990 
-2.215335 -3.260938 -0.011382 
-2.215335 -3.260938 -0.011382 
3.719510 0.098608 -0.598037 
5.678592 1.618975 -0.670807 
0.286438 -1.458213 -0.423622 
-4.603407 -2.700655 0.012178 
5.793636 3.086885 -0.781450 
-0.365260 -0.275169 -0.528275 
-5.344628 0.177224 -0.123364 
-3.432810 1.773156 -0.700674 
-3.456523 2.535016 -0.680055 
-2.593867 5.018159 -2.925442 
-4.371067 2.339949 -0.703890 
-3.996736 3.139538 -0.670517 
3.142173 -3.119337 -7.949754 
2.184455 -2.183193 -0.142906 
-3.622397 1.248601 4.517243 
3.410798 0.470835 -0.596269 
-2.446719 -0.631575 -0.608066 
-2.291892 0.947607 -0.654070 
-2.403022 1.373205 -0.668970 
-3.536382 2.033507 -0.694887 
5.616181 0.949378 -0.661349 
4.319474 0.774031 -0.666462 
4.947094 2.842515 -0.780312 
-0.970393 -0.241425 -0.562587 
-2.661263 0.453761 -0.667477 
-0.131806 -3.543240 -0.081978 
-3.284044 -4.815274 0.104313 
6.885836 0.801390 -0.613325 
6.980328 1.550723 -0.618547 
1.433524 -0.672608 -0.394590 
5.234789 1.404680 -0.698765 
4.402241 1.173489 -0.702502 
-5.454586 0.572171 -0.100842 
-1.694195 -4.526922 0.033484 
4.801955 0.668244 -0.656831 
0.644868 -1.346238 -0.388074 
-3.080850 -5.270372 0.163223 
4.165271 0.158337 -0.589834 
-5.893096 0.059473 -0.144949 
-6.176599 1.442925 -0.194819 
1.354084 0.726879 2.776847 
-1.888970 -8.240448 0.463625 
-2.238627 -7.640862 0.477611 
6.842412 1.496006 1.303774 
3.585710 -2.575834 5.883315 
2.160815 -2.607075 5.909652 
-0.681166 -4.328625 0.000509 
-0.681166 -4.328625 0.000509 
6.833634 -0.142634 -0.539452 
6.833634 -0.142634 -0.539452 
-0.453792 -3.768152 -0.032550 
3.373149 -1.106120 10.588632 
0.199817 0.567488 6.182203 
0.199817 0.567488 6.182203 
2.351530 -1.338605 -0.137548 
4.509450 -0.344010 -0.584019 
-1.320251 1.936509 7.850497 
4.937070 0.918897 -0.680492 
3.519717 0.211369 -0.559573 
3.697053 0.353403 -0.610937 
0.355505 0.989448 8.677851 
-4.925017 0.247162 1.159735 
0.459835 -0.449575 -0.446880 
5.075542 2.347471 -0.760902 
0.671746 -0.069589 -0.432176 
1.053061 1.679181 -0.155812 
-0.592658 0.321202 -0.515281 
-5.635227 -1.685996 0.044889 
-2.816301 -0.839581 -0.585818 
3.498953 4.493046 -0.419214 
-2.737761 -0.466611 -0.613869 
-2.737761 -0.466611 -0.613869 
3.647730 5.274679 -0.345585 
-2.564946 1.108487 -0.669969 
-2.564946 1.108487 -0.669969 
-2.820004 2.093981 -0.676753 
-2.747102 2.203001 -0.667705 
-3.370822 1.986431 -0.697275 
-2.940697 2.546162 -0.656705 
-3.316141 2.691842 -0.695628 
-4.288767 3.022568 -0.676938 
-4.288767 3.022568 -0.676938 
-3.888603 3.515244 -0.677175 
-4.357621 3.466872 -0.674616 
-6.391223 2.947134 -0.239773 
-3.483670 5.166941 -0.463056 
-4.859270 4.823853 -0.439539 
-4.614747 5.162144 -0.466383 
-4.614747 5.162144 -0.466383 
-3.965852 5.747437 -0.470028 
-3.656502 6.060147 -0.462884 
-4.696598 5.855098 -0.428097 
1.851878 -5.397960 -0.851967 
0.583711 -3.776742 4.124811 
0.472106 -4.056317 -0.050234 
-0.969260 -4.678629 0.038854 
1.191144 -3.437825 -0.111960 
2.680671 0.017710 -4.765001 
6.048265 0.189750 -0.632145 
6.048265 0.189750 -0.632145 
-2.288747 -4.218494 0.018319 
6.608903 0.697800 -0.613125 
6.608903 0.697800 -0.613125 
-4.003599 -4.526264 0.149710 
1.052609 -0.869680 -0.386239 
-3.640084 -2.953033 -0.022209 
-0.873438 -1.822849 -0.460974 
5.451428 2.086718 -0.753997 
1.255983 -0.786427 4.944958 
-3.922783 -1.729972 -0.090615 
1.029941 4.864898 5.036674 
-1.396596 -0.696285 -0.564126 
-5.177053 -1.615827 -0.034841 
3.339502 4.773996 -0.369007 
0.623923 5.727167 0.686488 
-2.396501 0.449736 -0.653874 
-3.109497 0.378318 -0.672014 
-0.749538 5.575094 0.830631 
-2.566020 1.097813 -0.671315 
-2.320927 1.876354 -0.649496 
-1.443271 1.452199 -2.360428 
-2.125825 0.544201 -3.582164 
-4.161060 1.597923 -0.698050 
-4.537727 1.514025 -0.675109 
-4.375134 2.711011 -0.695955 
-4.284171 2.871595 -0.677552 
-6.006868 3.301715 -0.306586 
-5.759599 4.127726 -0.364887 
-4.384806 5.022660 -0.472568 
-5.527944 5.197535 -0.417987 
7.357025 0.747415 -0.552780 
-0.725686 -4.648863 0.043751 
7.680809 1.810907 -0.551931 
-2.409074 -3.832319 0.008439 
6.452536 1.694262 -0.662278 
3.595470 0.536529 -0.586954 
-2.401308 -2.181947 -4.343740 
1.019610 4.930870 5.434670 
-0.699754 -0.101523 -0.550213 
-0.909292 0.230147 -0.565704 
2.852030 3.732915 -0.394860 
-0.740492 4.968131 0.809898 
-3.109881 0.377676 -0.672715 
-6.033916 0.774870 -0.115843 
-4.926659 4.642400 -0.452914 
-4.401165 5.255057 -0.465671 
1.116808 -5.453785 1.835466 
2.477354 -1.292990 6.604942 
2.145939 -2.487933 -0.131675 
-2.967710 -4.026655 0.027838 
3.995411 -0.321704 -0.585991 
4.136951 -0.131895 -0.602302 
7.197511 2.310384 -0.589444 
5.104688 2.573018 -0.747283 
5.717579 1.434531 -0.326901 
-5.160326 -1.878938 -0.031313 
-0.901741 0.565220 -0.557717 
-5.459462 1.315122 -0.154193 
-6.184425 2.507887 -0.256261 
-6.075689 3.601228 -0.308348 
-5.032489 4.315725 -0.460585 
-5.419216 4.112949 -0.409033 
3.782886 -2.510537 5.918991 
-2.315151 -4.538738 0.039466 
1.184522 -0.592825 -0.394266 
5.676518 3.360813 -0.793144 
-0.428912 0.134837 -0.523894 
-4.756907 -1.723717 -0.051870 
-0.676732 0.611717 -0.532697 
-4.745990 -1.175764 -0.096612 
-2.855532 -0.664519 -0.603266 
-5.596768 0.740588 1.047729 
-0.179722 5.977085 0.860246 
1.992188 -3.686629 8.089364 
2.415924 -2.853593 -0.073509 
6.379583 1.618308 -0.649393 
6.490765 2.192317 -0.688870 
-0.082413 0.096964 -0.489788 
1.036987 5.055354 6.283021 
-6.381979 2.599823 -0.179481 
-2.147740 -5.075930 2.041804 
3.137458 0.091878 -0.612352 
-6.389223 2.592346 -0.193008 
-6.681251 3.188250 -0.194277 
1.887770 -2.160931 -0.200735 
-3.673117 -4.950084 0.112539 
2.016975 -0.836521 9.318552 
1.621469 -0.616449 -0.359627 
0.305163 0.019445 -0.381516 
-4.944101 -1.750891 -0.059239 
2.392125 -1.372523 -0.161668 
0.923540 -1.569188 -0.314075 
3.704391 6.189455 -0.260194 
8.776829 4.434083 -0.128703 
8.776829 4.434083 -0.128703 
