ply
format ascii 1.0
element vertex 516
property float x
property float y
property float z
end_header
3.793875 -1.959463 -0.052001 
3.548180 2.585814 0.542731 
-5.138313 0.071509 0.238985 
2.763298 0.046663 2.236437 
3.992768 -1.530017 -0.054207 
3.833666 -2.439281 -0.084167 
-0.110126 -0.460312 0.358413 
-3.348009 1.178956 0.133334 
-3.410444 1.515808 0.124642 
-3.981921 1.974797 0.175859 
-3.905120 1.813501 0.169513 
-3.234658 2.563962 0.027989 
-3.871232 2.354496 0.086086 
-4.353536 2.303280 0.156498 
0.431024 -0.266187 -6.382868 
-4.711329 1.538876 0.234386 
-3.336694 2.808618 -0.005059 
-4.916807 1.389347 0.247462 
1.164678 -0.077859 0.479752 
5.879536 4.892359 -0.195452 
5.768546 4.172560 -0.117832 
-3.230393 1.177319 0.121067 
-3.287855 1.041499 0.133314 
-4.419214 1.494960 0.224417 
-5.118076 1.101118 0.258851 
-4.659917 0.928518 0.250619 
-0.355003 -0.013739 0.300260 
-4.014990 2.170841 0.134685 
-2.608511 0.467901 4.106371 
-2.608511 0.467901 4.106371 
3.029886 0.265436 0.535297 
4.624193 -0.911178 -0.087891 
3.508466 5.827808 -0.045466 
6.003234 4.718492 -0.183504 
5.360648 5.307250 -0.099539 
4.649802 5.248481 -0.029185 
-5.319054 2.056852 0.200496 
-3.410444 1.515808 0.124642 
-4.880788 1.928355 0.216301 
-2.890103 0.978045 0.077667 
-2.150413 -0.621556 -0.052228 
-4.711329 1.538876 0.234386 
-4.225612 1.180018 0.228412 
4.751485 1.011681 -0.117621 
0.607767 0.236872 -6.205045 
1.124521 -0.647089 -6.657448 
1.124521 -0.647089 -6.657448 
3.081298 3.576266 0.457075 
3.119887 3.354875 0.483963 
4.268840 2.773554 0.473681 
2.223499 1.618178 0.533690 
3.164125 1.987720 0.553505 
3.919158 -1.303980 -0.049521 
0.453737 -3.369184 -4.023827 
5.915676 4.275784 -0.148748 
-2.087179 0.004944 -0.089289 
-4.974378 2.077383 0.208741 
-1.986793 -0.441344 -0.081554 
-3.603048 0.875677 0.181864 
5.202848 0.928165 -0.109322 
2.775952 2.854626 0.500350 
3.535966 2.845564 0.523730 
2.756183 2.022593 0.543126 
-4.162827 0.003767 0.222989 
-3.034402 2.700036 -0.035631 
5.040762 5.400432 -0.068626 
-2.135116 -0.349796 -0.027645 
-3.799088 1.100427 0.213106 
3.315121 3.444667 0.472265 
-5.323673 1.229184 0.246224 
-1.867913 0.067861 -0.096170 
-3.707389 1.491804 0.161261 
-3.344282 0.627106 0.183167 
3.302728 3.860821 0.428377 
-3.566999 2.307562 0.061950 
1.444596 -1.090272 1.646477 
1.424381 -1.289443 1.350392 
-4.975659 0.515078 0.249432 
5.620161 4.588111 -0.102388 
4.917477 -0.324168 -0.101613 
5.740835 3.398805 -0.108351 
-4.432684 0.038590 0.235198 
0.899261 -0.266971 -6.458962 
0.899261 -0.266971 -6.458962 
4.596738 -0.643954 -0.082746 
3.708352 2.595014 0.517597 
-5.494228 1.003432 0.248611 
3.129992 2.331657 0.554682 
2.982530 1.999761 0.542357 
-4.938868 0.222682 0.244395 
-4.974842 -0.334016 0.226689 
2.299925 0.473513 0.564040 
-0.486513 1.270833 12.357718 
2.791522 0.388164 0.538602 
2.133335 -7.515477 -0.323076 
-3.026302 3.867767 -7.743579 
-5.118076 1.101118 0.258851 
-3.490664 -0.926030 0.120701 
3.702003 4.296198 0.377373 
-3.500630 1.971392 0.114847 
-3.230393 1.177319 0.121067 
-4.435035 1.212497 0.221102 
-2.150413 -0.621556 -0.052228 
-2.798731 -0.162688 0.072301 
3.175144 2.208260 0.546527 
-4.317348 0.645663 0.243757 
-4.284662 0.406728 0.232089 
2.361166 1.688401 0.529085 
2.361166 1.688401 0.529085 
-3.035284 -0.595168 0.096405 
3.312861 1.428766 0.556879 
-1.697203 -1.690280 0.006761 
3.168481 1.311208 0.567194 
3.036268 1.168901 0.559479 
3.036268 1.168901 0.559479 
2.388374 0.856312 0.549779 
-3.871232 2.354496 0.086086 
-3.884278 2.524878 0.089233 
6.061431 4.137851 -0.164739 
5.284105 4.094774 -0.044189 
-3.259400 1.508532 0.116721 
-4.825705 1.647185 0.245355 
4.445928 -1.550621 -0.094201 
3.164125 1.987720 0.553505 
-3.180397 3.780310 -0.184456 
4.299949 -2.174593 -0.092526 
4.965323 4.167033 -0.068440 
-2.524019 1.099132 -0.010672 
-3.258722 1.518138 0.112418 
-3.401549 1.373786 0.122550 
-0.254320 0.390542 0.310787 
-4.419477 0.328525 0.239500 
3.518443 1.363910 0.561236 
-4.731334 -0.805531 0.166149 
2.102346 0.227402 0.536108 
-3.831522 -3.412524 -0.045882 
-3.263779 3.511063 -0.106566 
4.423261 4.975642 -0.009515 
5.339201 4.663106 -0.085244 
4.171809 4.936295 0.011809 
5.892422 3.737176 -0.132810 
5.564546 0.845872 -0.175676 
2.994858 2.908167 0.481291 
-2.634136 -0.816465 0.004038 
-5.057333 0.705186 0.283937 
-5.057333 0.705186 0.283937 
-1.765212 -1.084843 -0.004655 
-0.221607 0.081852 0.334406 
-4.273243 -0.475449 0.218131 
1.442619 0.585643 0.505625 
2.419544 -8.090678 -0.367131 
-4.763139 2.258891 0.191323 
4.076117 -1.972507 -0.078088 
2.809616 2.444236 0.535602 
-4.824117 1.106061 0.251327 
-4.780439 0.583179 0.232158 
-4.134134 0.453505 0.228042 
2.605299 1.508978 0.552837 
-3.996715 1.657263 0.198321 
-3.327604 0.086608 0.184717 
5.308214 2.171293 -0.225858 
-6.980749 2.442756 0.046842 
-6.315169 2.040158 0.088022 
5.539160 5.097978 -0.127047 
3.508466 5.827808 -0.045466 
2.598997 2.590607 -2.136229 
6.176415 3.376841 -0.146551 
6.176415 3.376841 -0.146551 
-2.987581 0.731963 -7.471423 
6.317520 3.132078 -0.246794 
6.131676 3.209516 -0.149027 
5.752632 2.979919 -0.094349 
5.375975 2.937612 -0.110774 
5.385097 2.774868 -0.111884 
-0.863562 2.286600 -2.569806 
6.032849 2.112073 -0.207844 
5.557057 2.313678 -0.179023 
3.081298 3.576266 0.457075 
3.004574 3.399262 0.477274 
3.939377 2.948290 0.493097 
2.661296 3.224138 0.451788 
3.892497 2.053474 0.536555 
-0.698694 2.068237 5.185177 
3.286366 1.866097 0.558797 
2.206711 1.886926 0.493317 
-2.434078 2.090207 -2.238298 
4.314975 -0.086818 -0.079006 
3.556157 1.194032 0.535371 
-1.195568 -1.545261 4.152438 
0.976699 -2.857121 3.184093 
2.956227 0.538825 0.555762 
2.742310 0.565167 0.553929 
-7.258339 3.195392 0.064051 
3.737429 -1.083822 -0.039810 
-3.159638 1.378852 0.111779 
-3.159638 1.378852 0.111779 
1.704626 0.201878 0.511576 
-3.544875 2.534893 7.883797 
-1.452823 -2.357095 9.125598 
2.637636 -0.297196 0.502876 
2.666732 -0.477083 0.493857 
2.033427 -0.358432 0.511097 
3.793875 -1.959463 -0.052001 
1.723758 -0.566308 0.527247 
-2.903801 0.420498 0.113723 
2.509161 -2.258795 -0.072498 
2.917406 -2.548810 -0.055523 
-2.455062 -0.518140 -3.139133 
0.188239 -1.058676 0.363092 
-1.863669 -1.019806 -0.038071 
-2.758043 -0.682655 0.024548 
-2.341410 -0.973962 -0.065229 
2.039755 -2.581625 -0.034789 
-2.399879 -1.135144 -0.082001 
-0.076410 -1.407023 0.335212 
4.059249 -3.854204 -0.225375 
-5.310284 0.325735 0.237359 
-1.786801 -1.501532 -0.003495 
-5.488653 0.064693 0.227701 
-5.488653 0.064693 0.227701 
-1.890578 -1.658494 -0.025679 
-1.975546 -1.748994 -0.029040 
-1.975546 -1.748994 -0.029040 
-5.211770 -0.204407 0.211874 
-5.211770 -0.204407 0.211874 
-6.686558 0.076864 0.053550 
-4.700202 -0.415647 0.223536 
-4.418442 -0.669076 0.214026 
3.204128 -4.103762 -0.152399 
-6.289235 -0.146849 0.108227 
-4.528929 -0.711368 0.186497 
3.788096 -4.531472 -0.245135 
3.735731 -4.687569 -0.237125 
-4.907401 -0.849878 0.176420 
-3.352536 -1.614468 0.061491 
3.104747 -4.381156 -0.166208 
3.569982 -4.725013 -0.246423 
2.445261 -4.125104 -0.109546 
-0.482965 -1.090419 1.979653 
3.170764 -4.695342 -0.197237 
-3.550490 -1.954512 0.049438 
-3.467314 -1.999733 0.027810 
-3.467314 -1.999733 0.027810 
-3.376785 -2.125205 0.009449 
0.183709 -3.477410 -0.004082 
-0.316637 -3.354240 0.002202 
-5.596390 -1.521484 0.079255 
-1.218861 -3.433003 -0.052825 
-1.218861 -3.433003 -0.052825 
0.023644 -3.861095 -0.024822 
1.141546 -4.517665 -0.108928 
1.999628 -5.210846 -0.227738 
5.166094 5.481907 -0.076396 
5.796234 5.002794 -0.164272 
5.796234 5.002794 -0.164272 
1.252041 4.015598 -1.406698 
4.616670 4.742943 -0.027020 
6.129771 2.311298 -0.196390 
0.137641 -0.184733 -6.260125 
4.268840 2.773554 0.473681 
3.267928 3.988350 6.832649 
-3.849441 4.193354 -0.268731 
4.281492 2.594577 0.477895 
3.162974 2.796523 0.514462 
5.799822 0.630493 -0.202866 
5.668054 0.569562 -0.181063 
-1.071412 -0.923348 2.135658 
-4.089632 3.034889 0.026537 
4.492643 -0.439695 -0.078270 
3.486566 0.862274 0.540126 
3.341637 0.736625 0.544043 
3.443079 0.630318 0.532228 
-1.803693 -2.087144 8.601621 
4.237151 -1.352081 -0.068385 
-0.603088 0.725592 0.183785 
-4.955210 -0.527519 3.590837 
-7.291274 2.838792 0.040065 
4.832455 -1.843826 -0.160977 
-3.153266 1.385666 0.095922 
-3.153266 1.385666 0.095922 
-2.853844 1.176225 0.049839 
3.706637 -1.490847 -0.038343 
-5.919234 2.290713 0.275070 
-5.125371 1.877760 0.211934 
1.713251 -0.842274 0.477288 
3.348981 -2.333613 -0.051976 
-3.301418 0.415614 0.151070 
-2.918674 0.165844 0.105783 
-4.659917 0.928518 0.250619 
-0.012669 -0.772885 0.354510 
-6.939890 1.129961 0.009142 
-6.939890 1.129961 0.009142 
0.638930 -0.935178 0.421616 
-3.424851 -0.058371 0.194015 
3.326768 -2.997720 -0.093860 
-0.122409 -1.167023 0.322242 
-2.250445 -1.058403 -0.044533 
-2.250445 -1.058403 -0.044533 
1.839216 -2.574652 -0.025554 
-0.960838 -1.335512 0.173385 
-0.735869 -1.486786 0.201702 
-4.428053 -0.263553 0.213516 
-2.513268 -1.472905 -0.072478 
2.353369 -3.356026 -0.061019 
2.806999 -3.551794 -0.090651 
-3.490664 -0.926030 0.120701 
2.801088 -3.741927 -0.085981 
4.083793 -4.742142 -0.304986 
-6.417307 -0.244175 0.086337 
2.369399 -3.814989 -0.073578 
-6.852618 -0.365766 -0.018999 
-5.981564 -0.489845 0.132989 
0.785313 1.792072 6.486424 
-5.515514 -0.761970 0.149980 
2.098567 -4.036427 -0.084763 
2.098567 -4.036427 -0.084763 
3.760927 -5.049517 -0.284811 
-4.815106 -1.108453 0.166587 
1.068472 -3.655491 -0.037863 
-4.416120 -1.347930 0.150631 
-4.416120 -1.347930 0.150631 
-1.643676 -2.676548 -0.017657 
-1.116396 -2.811041 0.024505 
-4.738131 -1.242778 0.159758 
0.797585 -3.686150 -0.033299 
0.914470 -3.732753 -0.038118 
-4.932967 -1.239456 0.146059 
2.272264 -4.361825 -0.115165 
0.398530 -3.613061 -0.013380 
0.294476 -3.685012 -0.019276 
0.732087 -3.902479 -0.044105 
0.453737 -3.369184 -4.023827 
2.654427 -5.064803 -0.187641 
1.806971 -4.732342 -0.145948 
-0.412665 -3.880805 -0.035283 
-5.013225 -2.038112 0.063691 
-5.716389 -1.899473 0.033281 
-5.912164 -1.083102 -1.010487 
3.037472 -6.668450 -0.568691 
5.661702 4.384919 -0.121549 
3.261108 -1.017532 -2.698891 
6.111667 3.570777 -0.163042 
-3.008218 3.789482 -7.931270 
-3.008218 3.789482 -7.931270 
4.841591 3.909758 -0.046872 
4.841591 3.909758 -0.046872 
5.751880 1.962813 -0.171344 
5.601013 2.019529 -0.137111 
5.571826 1.723774 -0.151507 
6.114505 0.803216 -0.262163 
4.314704 2.370082 0.488700 
2.557434 0.249045 2.541217 
2.228226 1.616726 0.523843 
-3.091547 2.440355 0.014309 
3.628478 0.769970 0.532774 
3.791093 0.660343 0.511770 
-4.385022 2.531287 0.123109 
-3.077228 1.865796 0.076237 
-3.077228 1.865796 0.076237 
-3.076925 1.865524 0.075660 
-3.076925 1.865524 0.075660 
3.714306 -0.904981 -0.047361 
-6.539761 2.944617 0.164898 
1.321561 0.286005 0.493029 
-2.121663 0.337708 -0.086022 
2.450329 -0.414730 0.516597 
1.771273 -0.374023 0.496453 
1.748390 -0.583417 0.478750 
-2.796332 0.055254 0.065447 
3.206012 -2.453618 -0.046378 
-5.032410 1.021459 0.257260 
-4.797541 0.918480 0.255495 
0.170637 -0.721372 0.380434 
0.610721 -4.037516 0.678843 
-0.717753 -0.655973 0.268333 
2.466955 -2.447441 -0.069856 
-3.035284 -0.595168 0.096405 
-5.137111 0.070527 0.236662 
-2.383998 -1.506018 -0.057192 
-0.165177 -1.790100 0.272820 
3.527826 -3.981900 -0.170657 
3.789519 -4.153376 -0.195370 
-4.821377 -0.612241 0.206087 
-4.450974 -0.866534 0.184959 
-0.076224 -2.786221 0.091775 
-3.711739 -1.376233 0.112429 
1.179466 -3.514856 -0.021211 
0.900443 -3.452487 -0.017377 
-3.098115 -2.009900 -0.017251 
3.635908 -4.905843 -0.241456 
3.635908 -4.905843 -0.241456 
3.307132 -4.749376 -0.201987 
2.169572 -4.201822 -0.090374 
-4.415294 -1.349559 0.149317 
-4.415294 -1.349559 0.149317 
-0.058785 -3.202340 0.023435 
0.039007 -3.407381 0.001929 
2.249943 -4.585571 -0.123604 
0.039352 -3.645544 -0.056016 
-4.452831 -2.452142 -5.931459 
4.778095 4.190948 -0.012820 
-3.010879 3.790132 -7.925678 
-3.010879 3.790132 -7.925678 
5.598095 3.249989 -0.102143 
6.653989 2.116035 -0.352565 
6.062397 2.556225 -0.170128 
5.810799 2.635551 -0.136781 
5.810799 2.635551 -0.136781 
5.710795 2.266995 -0.157426 
5.752231 1.963638 -0.172351 
-2.268091 0.745950 -4.397911 
3.551590 2.584018 0.535850 
-2.018465 3.379317 6.143885 
5.063588 0.215817 -0.109050 
5.063588 0.215817 -0.109050 
-1.776843 -1.465572 2.732287 
3.171599 1.309722 0.560854 
-6.607803 3.614711 0.194219 
3.083351 0.526113 0.547669 
-3.940942 -1.178741 -4.225119 
-3.084032 1.442348 0.062681 
-4.564344 2.075134 0.196645 
-3.401549 1.373786 0.122550 
4.436766 -1.907881 -0.109019 
-6.529205 2.374613 0.138464 
-6.529205 2.374613 0.138464 
-2.545512 0.678317 0.011174 
2.276202 -0.276833 0.498190 
-1.991477 -0.439273 -0.071986 
3.924930 -3.682417 -0.169310 
2.905706 -3.134700 -0.071717 
2.905706 -3.134700 -0.071717 
2.628232 -3.262116 -0.067476 
-6.368377 0.134862 0.119235 
-4.444862 -0.862339 0.170439 
-4.262392 -1.134074 0.159522 
-1.703507 -2.442500 -0.004218 
2.607511 -4.255981 -0.132642 
-3.830231 -1.657712 0.076689 
-0.269692 -3.116917 0.027444 
-0.269692 -3.116917 0.027444 
-0.269692 -3.116917 0.027444 
-6.132980 -1.407719 0.032529 
2.818241 -6.747700 -0.556014 
2.970711 -6.985426 -0.581775 
2.970711 -6.985426 -0.581775 
3.006803 -7.933932 -0.518150 
5.613360 2.879288 -0.095665 
0.590579 -0.103393 -6.337159 
-0.619685 2.780054 -9.866029 
2.713609 0.078479 2.278921 
-1.537918 2.316715 -0.828567 
3.563752 1.828330 0.558508 
-6.597197 2.066130 0.112409 
1.630425 -0.357760 0.572336 
-6.141926 1.785709 0.217080 
0.440851 -0.553189 0.419160 
3.953087 -3.057721 -0.113376 
3.953087 -3.057721 -0.113376 
-2.381352 -0.827787 -0.024952 
-3.652772 -0.114732 0.184561 
-1.765604 -1.975609 -0.020921 
-3.402844 -1.289252 0.094819 
2.818349 -4.025684 -0.096623 
-0.878230 -2.633130 0.052908 
2.604426 -4.259088 -0.125024 
2.818859 -4.474605 -0.158138 
-5.682709 -0.991436 0.226352 
-0.895459 -3.293733 -0.022319 
-6.019664 -1.696166 0.012011 
5.995993 1.730576 -0.199991 
2.345004 1.960355 0.518006 
5.420955 -0.253237 -0.122747 
4.625320 -1.159540 -0.115064 
-6.662029 3.224165 0.173163 
-4.996975 1.884943 0.208303 
-3.799088 1.100427 0.213106 
1.981493 -0.928152 0.446824 
-5.799750 1.503455 0.217874 
1.501935 -0.849439 0.436467 
3.546091 -2.688282 -0.100688 
1.623163 -1.401494 0.374376 
2.511176 -2.622399 -0.070698 
-5.406326 0.797231 0.251926 
-2.833683 -0.489302 0.083941 
2.232001 -2.616856 -0.060160 
3.355604 -3.193926 -0.099121 
3.355604 -3.193926 -0.099121 
1.933660 -2.845515 -0.043211 
3.686176 -3.625873 -0.172621 
0.248600 -3.941345 -0.020482 
5.487749 3.742313 -0.106900 
4.021165 -0.996051 -0.105321 
0.776109 0.707564 0.404008 
1.099214 0.318264 0.479489 
3.544826 -2.121589 -0.039427 
3.058242 -1.965172 -0.076023 
4.174000 -2.510865 -0.018830 
4.174000 -2.510865 -0.018830 
2.510060 -2.632924 -0.065171 
-6.182758 0.906940 0.193496 
-3.280585 -0.717418 0.124141 
-3.280585 -0.717418 0.124141 
2.089718 -3.337339 -0.071932 
2.599598 -3.699352 -0.078160 
3.518901 -4.359184 -0.228467 
-5.629597 -1.074177 0.135296 
6.299011 2.201621 -0.237612 
2.549903 0.159821 0.603162 
1.408723 -0.190139 0.479336 
-5.824127 0.756780 0.211669 
-5.834448 -0.079975 0.142335 
-4.731334 -0.805531 0.166149 
-3.417000 0.925591 1.603000 
0.551799 -4.741525 -0.422248 
-6.315169 2.040158 0.088022 
