ply
format ascii 1.0
element vertex 603
property float x
property float y
property float z
end_header
0.552410 2.964272 0.147984 
2.870645 4.423496 0.896495 
3.638570 3.142103 0.483824 
-6.171426 0.083623 0.539097 
-3.345807 0.977779 0.792121 
-3.573925 0.346209 0.619751 
1.978123 -0.054467 0.061443 
-4.072972 -0.611831 0.356619 
0.453004 -1.137885 -0.091003 
0.787267 -1.442156 -0.194970 
-0.477063 -4.244129 -0.694752 
0.355247 -4.005567 -0.588807 
5.566783 -0.515907 0.552985 
3.685019 -1.185663 0.618576 
4.871070 -1.524435 0.459086 
-2.425338 3.598287 -5.754742 
0.380975 3.675619 0.364962 
1.001240 1.724447 2.323851 
3.982149 4.590378 0.894810 
3.194513 3.842976 0.717207 
-4.561995 1.668264 0.901412 
-4.135641 1.788248 0.945947 
-5.511373 0.867199 0.732006 
-4.658311 0.620999 0.695294 
-4.542562 0.588974 0.693447 
-3.207870 1.013540 0.790859 
-3.511466 0.877532 0.760201 
-4.766484 0.377488 0.640191 
-5.415665 0.073984 0.559356 
0.997743 0.029249 0.142066 
0.087954 -0.169536 0.133690 
-5.519254 -0.385905 0.470602 
2.007326 -0.294010 0.013139 
1.971630 -0.655352 -0.062557 
1.941557 -0.815637 -0.094990 
1.337562 -1.150081 -0.148223 
-0.596105 -4.232761 -0.700066 
-0.190187 -4.386541 -0.701302 
3.940093 -0.386660 0.789037 
4.657197 -0.931309 0.628726 
4.441903 -1.330238 0.556727 
3.827514 -1.736141 0.474060 
2.663871 -3.838247 -0.038342 
0.286486 3.078640 0.196880 
3.655303 4.193267 0.808679 
4.231059 3.477194 0.532330 
2.263455 -5.730181 -0.687781 
-4.602901 0.088583 0.554923 
-4.719678 1.498118 0.874158 
-5.296431 1.135719 0.799644 
-5.062617 0.882519 0.742208 
1.612283 0.465778 0.180548 
-4.447684 0.454286 0.656182 
-4.447684 0.454286 0.656182 
1.768486 -0.104884 0.070372 
-4.123971 0.098264 0.568217 
-3.769068 0.153080 0.574256 
-5.478595 -0.684592 0.366884 
1.357589 -0.684924 -0.031378 
0.859297 -1.191232 -0.126353 
-5.232331 3.443142 0.781749 
2.363869 5.550942 1.224758 
2.787357 4.510746 0.925896 
-5.417410 1.561227 0.848246 
-5.268215 1.456226 0.858535 
-5.963282 0.735598 0.657542 
-3.713971 0.809533 0.739864 
-4.252716 0.484948 0.662292 
0.857285 0.056969 0.162936 
0.796291 -0.194155 0.106358 
-4.803484 -0.358741 0.456666 
1.164616 -0.374059 0.056043 
1.919800 -0.501532 3.670310 
4.506942 -0.908471 0.655923 
1.719062 -1.910850 -0.361704 
-0.459719 -3.351751 -0.537349 
-5.742335 0.681034 0.692671 
-3.076966 1.785369 1.002916 
-2.807725 1.730497 0.957230 
2.039019 0.351483 0.134977 
1.465291 0.216501 0.154355 
-3.861732 0.585045 0.688940 
-5.500034 -0.132432 0.513033 
0.989015 -1.033832 -0.094590 
1.678446 -0.917101 -0.100909 
1.886972 -1.116063 -0.167568 
-0.436549 -3.895272 -0.615298 
3.889527 -1.066113 0.669714 
2.372849 -3.623107 -0.017383 
3.743286 4.831678 0.973358 
4.625581 3.810393 0.593872 
-4.673884 0.861159 0.727225 
-2.879021 0.574300 0.627567 
-1.006639 -0.439056 7.241409 
0.912276 -0.595768 -0.010765 
5.583936 -1.249788 0.423144 
1.779157 0.349691 0.160428 
0.547506 -0.438931 0.067733 
0.547506 -0.438931 0.067733 
1.576516 -0.528828 -0.003981 
2.133832 -0.491425 -0.035806 
2.133832 -0.491425 -0.035806 
0.649762 -1.101695 -0.099472 
-0.800716 -0.406768 -9.266754 
1.543982 -1.466471 -0.249084 
-5.024467 -0.717003 0.360137 
0.469403 -0.011332 0.129742 
0.163274 -0.698809 -0.516429 
0.163274 -0.698809 -0.516429 
-1.956966 2.491681 -5.182519 
0.837981 3.112895 0.153424 
4.194317 4.155742 0.756362 
0.246436 2.723477 -7.786921 
3.798661 3.876472 0.713088 
0.147317 2.706228 -7.516781 
0.147317 2.706228 -7.516781 
3.289535 3.468817 0.599214 
4.113003 3.355180 0.515252 
4.082236 3.182067 0.461054 
4.546120 2.995432 0.346788 
-6.382253 2.817492 0.756521 
-0.259599 2.399695 -7.465352 
3.004410 2.822585 0.385196 
3.903642 2.867146 0.374559 
3.903642 2.867146 0.374559 
3.398352 2.791430 0.387255 
3.521780 2.654782 0.329976 
3.521780 2.654782 0.329976 
3.542401 2.499788 0.280739 
-3.932127 1.895641 1.000843 
-3.028353 1.723302 0.979979 
-3.354844 1.344881 0.889972 
-3.345807 0.977779 0.792121 
-4.056822 -0.211086 0.479024 
-4.205892 -0.334010 0.448441 
-4.012999 -0.370710 0.430982 
-3.565755 -0.453396 0.380372 
-3.558855 -0.601806 0.329844 
-4.688797 -0.649815 0.376797 
-4.171292 -0.719011 0.330718 
-3.795183 -0.852808 0.267252 
-3.996445 -1.007682 0.233167 
-3.539228 -1.388931 0.062716 
3.577280 5.099712 1.067326 
-4.381822 -1.385913 0.136065 
-4.541358 -1.448828 0.118402 
-4.409769 -1.618055 0.050167 
-4.015789 -1.742152 -0.024187 
-4.331416 -1.742673 0.001078 
3.352256 -0.993116 0.664164 
5.864645 -1.462505 0.315896 
4.470720 -1.121966 0.603007 
5.339828 -1.605125 0.359672 
5.277960 -1.731845 0.349221 
5.752636 -2.079542 0.148556 
3.511476 -1.640138 0.485619 
2.685901 -4.281755 -0.195316 
2.800728 4.656976 0.962696 
-3.693027 -1.929523 -0.103275 
3.424930 3.963469 0.750405 
-0.261162 2.299906 -7.766188 
-0.453296 2.069749 -7.991790 
-0.658175 1.873345 -8.214707 
-3.516970 2.058486 1.083090 
-5.014519 1.162029 0.767895 
-3.207870 1.013540 0.790859 
-3.380697 0.834169 0.750787 
2.011442 -3.150243 3.700985 
-3.442927 0.361551 0.618727 
-3.429523 0.008957 0.512710 
1.593847 -0.753374 -0.066150 
-3.499149 -0.298763 0.422574 
-4.306033 -0.380996 0.439518 
-5.379837 -0.481963 0.436030 
-3.499216 -0.862224 0.228733 
1.783286 -1.553383 -0.265505 
-4.193489 -1.180449 0.184331 
-5.032838 -1.214641 0.208002 
-5.032838 -1.214641 0.208002 
-4.739823 -1.279331 0.175256 
-2.171713 -2.615043 -0.638792 
6.101300 -0.897639 0.395327 
3.940093 -0.386660 0.789037 
5.436145 -0.938596 0.504358 
5.861980 -1.756331 0.259967 
2.255761 -4.019192 -0.114196 
3.796826 4.074112 0.766563 
4.046063 4.003244 0.711569 
4.171399 3.886699 0.659328 
3.656680 3.876431 0.717022 
-3.523118 1.637811 0.966072 
-3.708294 1.495411 0.920297 
-1.967990 -2.189005 -0.480149 
-4.589098 0.352645 0.634180 
0.268570 -0.396122 0.077298 
1.502605 -0.650945 -0.025836 
-5.398001 -0.895145 0.309551 
-3.565915 -1.644952 -0.026046 
4.553897 -1.974100 0.353662 
4.256772 -2.016019 0.334794 
3.779896 2.207926 -2.514901 
0.634654 3.250569 0.227964 
-0.662299 2.972243 0.168093 
3.633545 2.877775 0.401127 
-0.934335 1.878719 -7.512195 
0.485693 0.735049 0.246869 
-3.303845 1.636758 0.969152 
-5.898407 0.570661 0.647547 
-3.172517 0.661013 0.684130 
0.662075 -4.460678 -0.582897 
-3.246986 -0.634486 0.303538 
-0.465130 -0.866216 7.906975 
3.961450 -1.812563 0.435623 
2.369134 -4.395099 -0.216159 
2.369134 -4.395099 -0.216159 
2.580090 -4.317632 -0.189633 
2.209938 -4.587437 -0.284973 
-0.443818 3.577325 0.318401 
4.458419 3.516193 0.518460 
-5.204189 1.644602 0.870446 
1.465291 0.216501 0.154355 
-3.713971 0.809533 0.739864 
-6.023869 0.413023 0.613803 
-0.482249 -0.214050 0.120188 
-2.845656 0.161056 0.527810 
4.312480 -1.162902 0.613492 
-4.415781 -1.115093 0.218880 
0.279715 -4.436408 -0.666874 
2.542279 -3.858173 -0.061062 
3.577293 3.485550 0.601422 
-3.325212 -0.200834 0.435836 
-5.749803 -0.518951 0.424622 
-0.044928 -0.482960 0.156497 
-1.013025 4.131977 -8.122839 
1.835736 3.435702 -1.457104 
2.192430 5.396205 1.178836 
2.403798 5.362970 1.171143 
1.414519 3.370218 -2.031840 
0.542487 3.411881 -4.423364 
1.492445 5.000073 1.032702 
1.492445 5.000073 1.032702 
2.750023 4.818917 1.012738 
2.750023 4.818917 1.012738 
2.870645 4.423496 0.896495 
0.253548 4.477337 0.555653 
0.253548 4.477337 0.555653 
0.224393 2.640402 -7.978842 
3.994024 3.897123 0.694162 
0.351673 4.089659 0.478564 
0.351673 4.089659 0.478564 
4.717053 3.533458 0.488100 
0.011652 4.084811 0.461275 
-0.222361 2.977481 -5.831816 
0.194948 3.819706 0.406581 
4.003624 3.413622 0.546981 
2.803495 3.613781 0.641030 
3.421244 3.175381 0.502632 
3.421244 3.175381 0.502632 
4.012619 3.035180 0.421160 
0.166744 3.163442 0.242388 
0.009848 2.986327 0.208894 
0.225801 0.489813 -1.531389 
3.311830 2.491268 0.279436 
0.232965 2.760682 0.123177 
0.232965 2.760682 0.123177 
-0.096005 2.817247 0.163470 
-0.678703 0.988949 -7.621411 
-0.731095 1.726280 -8.479800 
-6.157347 2.982936 0.789548 
-6.157347 2.982936 0.789548 
-5.921115 2.808373 0.666427 
-6.419456 2.413877 0.584170 
-3.399866 1.446754 0.916966 
-4.760277 0.346041 -1.646120 
-3.354844 1.344881 0.889972 
-3.345807 0.977779 0.792121 
-2.848859 0.820848 0.691855 
-2.848859 0.820848 0.691855 
-5.083602 1.073703 0.718077 
-4.796377 1.011213 0.761009 
-6.205543 0.520209 0.606317 
1.350066 -1.000985 -0.103234 
1.788472 -1.129422 -0.166773 
-2.756744 -0.411182 0.317241 
5.171095 -1.359101 0.455871 
5.171095 -1.359101 0.455871 
-2.638292 -0.504126 0.272734 
2.416851 -1.547033 -0.308729 
4.252024 -1.318633 0.579141 
-3.816463 -0.377429 0.417995 
1.608041 0.316875 3.838986 
-4.205892 -0.334010 0.448441 
-4.205892 -0.334010 0.448441 
-2.579509 -0.708319 0.185726 
-2.579509 -0.708319 0.185726 
-2.432766 -0.811531 0.132731 
3.108498 -1.341015 0.536363 
5.012015 -1.831370 0.328398 
-0.764135 -0.519841 7.411221 
6.313051 -2.297262 -0.035265 
-4.171292 -0.719011 0.330718 
-0.537141 -0.491928 7.446830 
5.532153 -2.499456 -0.527084 
5.751375 -2.325798 0.054732 
-3.794297 -1.003609 -1.820637 
-3.483636 -1.152103 0.178330 
4.383601 -2.170144 0.319267 
4.383601 -2.170144 0.319267 
5.491915 -2.487692 0.049179 
4.130869 -2.156020 0.295014 
4.773309 -2.384968 0.191610 
-2.385487 -2.011750 -0.403547 
5.244299 -3.071062 -0.136492 
0.239477 -0.655664 7.992234 
-5.671294 -1.598727 0.081564 
0.341871 -0.686600 8.106519 
0.341871 -0.686600 8.106519 
-5.621689 -1.716821 0.042676 
-5.621689 -1.716821 0.042676 
-3.658710 -2.135467 -0.212343 
-3.709159 -2.237545 -0.265468 
-3.924370 -2.232653 -0.223385 
-4.906983 -2.013992 -0.077171 
3.998811 -3.708996 -0.714075 
-2.502105 -2.928019 -0.808851 
-2.502105 -2.928019 -0.808851 
-3.577849 -2.421631 1.435929 
-3.577849 -2.421631 1.435929 
-5.627968 -2.176039 -0.151444 
-5.181065 -2.379493 -0.230727 
-5.181065 -2.379493 -0.230727 
-4.090825 -2.836728 -0.474355 
2.831708 -3.599397 -0.006304 
0.030695 -0.573082 6.274309 
1.738015 -4.302593 -0.284253 
-0.637722 -4.506352 -0.778942 
-1.193626 -4.510833 -0.875561 
1.519299 -4.568445 -0.367943 
1.519299 -4.568445 -0.367943 
-0.737683 -4.631346 -0.827145 
2.836344 -5.290384 -0.523372 
-0.213015 -5.242268 -0.942242 
-0.213015 -5.242268 -0.942242 
2.713964 5.512232 1.201202 
0.158869 3.376815 -5.865999 
4.066688 4.157761 0.767282 
0.521063 4.144179 0.504035 
0.701451 4.007376 0.443972 
0.114918 4.071760 0.461391 
0.781493 3.778170 0.372965 
4.732751 3.128769 0.353223 
1.281189 3.252791 0.102912 
-0.259599 2.399695 -7.465352 
3.131384 3.116346 0.474500 
0.910805 2.982472 0.110530 
-0.689143 2.836327 -5.564937 
-0.915687 2.749194 -5.534936 
3.849961 2.242808 0.179080 
3.849961 2.242808 0.179080 
0.406895 2.504374 0.024345 
0.083929 2.516503 0.103484 
2.491166 2.219835 0.122000 
-0.079636 2.413478 0.057269 
-5.237574 3.459594 0.786531 
3.090598 1.813769 0.066877 
-1.537631 0.133450 2.833584 
-1.014227 -0.610457 5.081219 
-2.388579 1.381383 0.806954 
-3.524770 1.632031 0.970011 
-3.794439 1.302714 0.845247 
-4.826332 1.140978 0.788691 
-2.849709 0.820897 0.693213 
5.675734 -0.479707 0.537781 
-5.113430 1.025038 0.776862 
4.485414 -0.223303 0.768187 
5.566783 -0.515907 0.552985 
-2.092156 -0.704593 -0.609840 
0.329594 -0.539429 0.046518 
0.329594 -0.539429 0.046518 
4.915459 -1.302059 0.503187 
4.915459 -1.302059 0.503187 
3.824352 -1.387563 0.574593 
6.632288 -2.168209 -0.065529 
5.644899 -2.010908 0.204113 
-5.508175 -0.384542 0.452476 
3.111228 -1.536240 0.473877 
-2.315501 -1.447412 -0.159590 
5.541813 -2.291849 0.121005 
3.806813 -1.907701 0.425622 
1.415423 -2.183523 -0.434373 
5.111139 -2.418619 0.121663 
5.601795 -2.573095 0.005192 
4.882746 -2.425431 0.178588 
-1.074402 -1.952491 -0.282054 
4.122420 -2.455659 0.200596 
-3.695163 -1.562569 0.019699 
5.187777 -2.925525 -0.110877 
-5.713942 -1.359686 0.158257 
-4.844716 -1.538975 0.097836 
4.583410 -2.878983 -0.042225 
-5.641132 -1.474014 0.129060 
-5.641132 -1.474014 0.129060 
-3.821795 -1.915024 -0.106205 
-5.321613 -1.594261 0.085238 
-4.203971 -1.835609 -0.041860 
-3.274193 -2.160923 -0.277237 
-3.274193 -2.160923 -0.277237 
-2.489945 -2.666047 -0.668058 
-5.190825 -1.969315 -0.048092 
-4.734327 -2.262498 -0.180895 
4.036908 -3.916674 -0.791594 
4.189163 -4.043147 -0.836866 
-1.235791 -0.575262 6.354752 
2.601311 -3.612122 0.007134 
2.667054 -3.835547 -0.044061 
-0.336819 -3.799480 -0.596761 
2.371967 -4.032575 -0.111056 
2.044865 -4.014946 -0.150040 
2.979654 -4.733679 -0.337932 
2.979654 -4.733679 -0.337932 
1.975626 -4.715972 -0.360826 
1.966543 -4.937328 -0.434892 
1.053267 -5.264488 -0.699911 
3.037387 -5.659340 -0.686003 
3.037387 -5.659340 -0.686003 
1.021125 -5.587920 -0.827417 
1.877199 -5.952399 -0.828794 
1.791540 3.705647 -2.712783 
-0.594994 2.541369 -4.937832 
4.227099 4.924382 0.965353 
2.238777 5.181767 1.117831 
1.561280 5.186781 1.095695 
4.099038 4.670387 0.909361 
-0.650389 1.912656 -4.319548 
4.625318 4.452810 0.775406 
3.836522 4.585800 0.905413 
0.316655 3.110569 -6.920461 
2.551809 4.632406 0.956728 
2.551809 4.632406 0.956728 
1.504340 4.714565 0.933843 
1.818983 4.103987 0.713935 
0.380975 3.675619 0.364962 
2.731509 3.437423 0.581017 
0.497106 3.459957 0.296069 
-0.638592 3.543340 0.286581 
-0.335534 2.560345 -6.775942 
3.757569 2.642570 0.335351 
0.083946 3.004872 0.204253 
-0.223466 2.866057 0.185573 
0.095578 2.678134 0.103071 
-0.379789 2.627654 0.130612 
-0.823850 1.905909 -7.670376 
-5.855357 3.274650 0.859996 
-6.295818 2.688216 0.715190 
-3.708294 1.495411 0.920297 
-4.390306 0.828688 0.727745 
-2.523622 -0.522870 5.334934 
5.089103 -0.568058 0.617578 
-3.080145 0.171616 0.538237 
-3.080145 0.171616 0.538237 
-2.648137 0.015836 0.431265 
0.421626 -0.662675 0.053975 
6.964024 -1.702641 0.049988 
-2.517778 -0.443840 0.266951 
-2.517778 -0.443840 0.266951 
4.325241 -1.182894 0.597401 
-2.461729 -0.642919 0.183999 
6.130671 -2.076586 0.074209 
5.838085 -2.190648 0.104657 
-0.419699 -3.044680 0.528587 
5.375475 -2.443191 0.101200 
-4.193489 -1.180449 0.184331 
4.859059 -2.796794 -0.034078 
5.452455 -2.932124 -0.120786 
5.452455 -2.932124 -0.120786 
-3.210767 -1.837135 -0.147968 
-2.361539 -2.181806 -0.482190 
-5.397968 -1.428743 0.142877 
-4.989551 -1.518406 0.101855 
-4.989551 -1.518406 0.101855 
-2.901319 -2.091142 -0.306421 
-2.091776 -2.445083 -0.578145 
-3.822387 -1.969443 -0.114685 
-2.299620 -2.595045 -0.640672 
-5.468534 -1.778497 0.024118 
-5.300353 -1.829530 -0.008409 
-0.946336 -2.746638 -0.419732 
-4.146824 -2.450227 -0.299681 
-0.489318 -1.581387 -7.576281 
4.588423 -4.223937 -0.881158 
3.988390 -4.217541 -0.916003 
1.862774 -4.823946 -0.404025 
1.862774 -4.823946 -0.404025 
1.588751 -5.111741 -0.518439 
2.286630 -5.552728 -0.626821 
1.509641 -5.732006 -0.785118 
1.509641 -5.732006 -0.785118 
-1.071477 -5.580590 -2.655204 
2.245561 -6.191366 -0.917379 
1.988437 5.420123 1.180229 
2.519072 3.354567 -1.833129 
2.239961 5.173934 1.117664 
1.604514 4.896077 1.004310 
-2.035391 2.769450 -6.047224 
3.796826 4.074112 0.766563 
0.392014 4.340398 0.541376 
2.966953 4.045362 0.771340 
2.966953 4.045362 0.771340 
4.865969 3.583977 0.470215 
0.438207 3.881785 0.423497 
4.809879 2.906090 0.237173 
0.493594 3.464176 0.300782 
0.493594 3.464176 0.300782 
1.124065 3.239298 0.147719 
3.770716 2.640051 0.314760 
0.083667 3.004590 0.204764 
-0.787337 2.758266 0.144148 
3.128040 2.299716 0.232164 
2.324697 2.215790 0.098520 
-4.500658 1.056361 0.771082 
-4.123971 0.098264 0.568217 
5.468403 -1.529086 0.372115 
4.566634 -2.444116 0.185738 
-3.446416 -1.872926 -0.129714 
-2.463178 -2.475939 -0.598560 
-0.347466 -2.718110 -0.413712 
-4.253104 -2.261969 -0.235947 
4.730021 -4.032771 -0.792359 
4.271952 -2.453524 2.291973 
-0.721421 -4.559227 -0.817522 
-0.721421 -4.559227 -0.817522 
2.147595 -4.967708 -0.417656 
2.061454 -5.942638 -0.842495 
2.061454 -5.942638 -0.842495 
4.350407 4.569141 0.863795 
4.979079 3.832228 0.560343 
-0.430553 3.304149 -4.707210 
-0.324097 2.692083 -6.442448 
4.674038 2.681116 0.277202 
-0.246753 2.373426 0.075310 
-5.710165 3.317473 0.854403 
-3.692651 1.760039 0.997850 
-4.362097 1.716086 0.885615 
-4.080917 1.572769 0.876709 
-3.952215 1.267030 0.850271 
-3.861732 0.585045 0.688940 
-1.838888 -0.538010 -6.806111 
-4.895867 -0.020424 0.551198 
3.495932 -1.173510 0.646469 
6.120014 -2.169041 0.049716 
-4.021286 -0.829577 0.286662 
3.679313 -1.752178 0.476686 
6.153266 -2.552183 -0.078738 
-1.956948 -1.696600 -0.306012 
-2.204222 -1.770298 -0.326041 
-2.140789 -2.182660 -0.487263 
-4.158498 -1.968825 -0.100293 
-5.004614 -2.088005 -0.118634 
-3.853664 -2.495502 -0.357457 
2.209938 -4.587437 -0.284973 
-0.501886 -4.633581 -0.776076 
2.987387 -5.245393 -0.520603 
2.865338 5.278867 1.137351 
4.196115 3.102479 0.436985 
3.093639 2.023710 0.098863 
-3.724814 1.170364 0.800232 
-0.248428 0.214121 0.193079 
1.807207 -0.555740 -0.010308 
1.807207 -0.555740 -0.010308 
-5.523200 0.560410 0.656688 
6.585572 -1.789918 0.025357 
1.231554 -2.176976 -0.417009 
-5.168549 -1.248988 0.197133 
5.881684 -3.516875 0.327632 
-0.615851 -3.587910 -0.574860 
-0.306705 -4.193614 -0.673439 
-0.830393 -4.268724 -0.714607 
2.149186 -5.579271 -0.615264 
0.093794 4.338715 0.531194 
3.091895 2.021302 0.102204 
4.521703 -1.071402 -0.344114 
-3.181898 0.285463 0.588553 
1.219623 -2.151931 -0.403376 
-3.885268 -1.208302 0.153198 
2.024666 -4.209255 -0.191716 
2.710752 3.803503 0.691788 
-0.272188 3.848000 0.396590 
4.057789 0.462208 1.879598 
0.220885 -0.842155 0.004981 
-5.381965 0.089610 0.512625 
-5.833644 0.133928 0.602535 
-0.278953 -1.079972 0.059602 
1.543982 -1.466471 -0.249084 
5.585870 -1.832949 0.255317 
-7.014151 -0.154397 0.343395 
-3.991299 -0.704633 0.331965 
-4.478788 -0.686064 0.345131 
4.827565 -2.093923 0.293060 
-4.278151 1.143886 0.792097 
4.830323 -1.001839 0.473673 
-0.855522 -0.949054 -0.027854 
-0.044928 -0.482960 0.156497 
6.433810 -2.028583 -0.012965 
